ply
format ascii 1.0
element vertex 451
property float x
property float y
property float z
property uchar red
property uchar green
property uchar blue
property uchar alpha
property uint label
end_header
5.84657430648803711 3.29170441627502441 0.379416227340698242 255 0 246 144 112
5.83213567733764648 3.32170891761779785 0.365593969821929932 255 0 246 144 112
5.79459571838378906 3.29732441902160645 0.334409773349761963 255 0 246 144 112
5.81498813629150391 3.32949280738830566 0.354582250118255615 255 0 246 144 112
5.82564258575439453 3.33207464218139648 0.389437943696975708 255 0 246 144 112
5.70620489120483398 3.30533719062805176 0.422694236040115356 255 0 246 144 112
5.75077676773071289 3.34407210350036621 0.388031691312789917 255 0 246 144 112
5.74308586120605469 3.29440498352050781 0.393549293279647827 255 0 246 144 112
5.68485498428344727 3.33116769790649414 0.45440906286239624 255 0 246 144 112
5.67623281478881836 3.32742881774902344 0.467850267887115479 255 0 246 144 112
5.72195196151733398 3.29964303970336914 0.467475026845932007 255 0 246 144 112
5.67390584945678711 3.36596775054931641 0.432714998722076416 255 0 246 144 112
5.69031476974487305 3.34755921363830566 0.420492321252822876 255 0 246 144 112
5.71117925643920898 3.29373574256896973 0.438858658075332642 255 0 246 144 112
5.75629377365112305 3.28143882751464844 0.427373677492141724 255 0 246 144 112
5.7352299690246582 3.41616559028625488 0.51218801736831665 255 0 246 144 112
5.72470235824584961 3.39565014839172363 0.53802955150604248 255 0 246 144 112
5.73543119430541992 3.41920995712280273 0.532113313674926758 255 0 246 144 112
5.709442138671875 3.35405135154724121 0.5269203782081604 255 0 246 144 112
5.74012994766235352 3.34461569786071777 0.495737075805664062 255 0 246 144 112
5.73647975921630859 3.38483762741088867 0.513388991355895996 255 0 246 144 112
5.64392375946044922 3.33758187294006348 0.393326044082641602 255 0 246 144 112
5.62753105163574219 3.34955263137817383 0.35980069637298584 255 0 246 144 112
5.68909502029418945 3.37188100814819336 0.172850698232650757 255 0 246 144 112
5.58550739288330078 3.33750009536743164 0.264561384916305542 255 0 246 144 112
5.58115196228027344 3.30238103866577148 0.277499973773956299 255 0 246 144 112
5.57694244384765625 3.16835498809814453 0.239743977785110474 255 0 246 144 112
5.82905817031860352 3.49389290809631348 0.456008940935134888 255 0 246 144 112
5.84560012817382812 3.4796602725982666 0.406747132539749146 255 0 246 144 112
5.83647298812866211 3.491485595703125 0.382390707731246948 255 0 246 144 112
5.85044240951538086 3.48589253425598145 0.470711588859558105 255 0 246 144 112
5.74687004089355469 3.39994120597839355 0.436654925346374512 255 0 246 144 112
5.73006439208984375 3.43071746826171875 0.472048938274383545 255 0 246 144 112
5.69985866546630859 3.43297147750854492 0.438725113868713379 255 0 246 144 112
5.67836236953735352 3.3964540958404541 0.425309598445892334 255 0 246 144 112
5.68892955780029297 3.3824470043182373 0.419786572456359863 255 0 246 144 112
5.73117542266845703 3.37997770309448242 0.408208340406417847 255 0 246 144 112
5.71169090270996094 3.35823869705200195 0.400927126407623291 255 0 246 144 112
5.71545028686523438 3.42519664764404297 0.445387065410614014 255 0 246 144 112
5.68253278732299805 3.3951570987701416 0.151003167033195496 255 0 246 144 112
5.74157905578613281 3.39311599731445312 0.217735111713409424 255 0 246 144 112
5.59716367721557617 3.36042141914367676 0.270297229290008545 255 0 246 144 112
5.61202144622802734 3.31636357307434082 0.337091267108917236 255 0 246 144 112
5.84328269958496094 3.48090934753417969 0.432579249143600464 255 0 246 144 112
5.66878080368041992 3.21148204803466797 0.409280955791473389 255 0 246 144 112
5.64691543579101562 3.25382328033447266 0.434085309505462646 255 0 246 144 112
5.66801643371582031 3.27248835563659668 0.487596720457077026 255 0 246 144 112
5.66432666778564453 3.40446901321411133 0.386351078748703003 255 0 246 144 112
5.64704036712646484 3.40482354164123535 0.365482598543167114 255 0 246 144 112
5.63418769836425781 3.40254640579223633 0.32117345929145813 255 0 246 144 112
5.64375400543212891 3.41095709800720215 0.355496376752853394 255 0 246 144 112
5.61966085433959961 3.35210442543029785 0.332103103399276733 255 0 246 144 112
5.86132955551147461 3.24848651885986328 0.523511588573455811 255 0 246 144 112
5.83698606491088867 3.25871396064758301 0.397265851497650146 255 0 246 144 112
5.72971916198730469 3.32481718063354492 0.49000212550163269 255 0 246 144 112
5.76035165786743164 3.34875726699829102 0.480278193950653076 255 0 246 144 112
5.69298410415649414 3.33445072174072266 0.502297103404998779 255 0 246 144 112
5.58774995803833008 3.21126699447631836 0.32685774564743042 255 0 246 144 112
5.61259889602661133 3.40177536010742188 0.269788473844528198 255 0 246 144 112
5.61785984039306641 3.37374329566955566 0.30043339729309082 255 0 246 144 112
5.69171810150146484 3.20491743087768555 0.442706108093261719 255 0 246 144 112
5.77038240432739258 3.2294166088104248 0.389144778251647949 255 0 246 144 112
5.79284429550170898 3.25199985504150391 0.424930214881896973 255 0 246 144 112
5.75021982192993164 3.22432351112365723 0.381776094436645508 255 0 246 144 112
5.80730724334716797 3.25956368446350098 0.412250041961669922 255 0 246 144 112
5.78413724899291992 3.24667859077453613 0.449765950441360474 255 0 246 144 112
5.80413150787353516 3.24511814117431641 0.457401514053344727 255 0 246 144 112
5.82269668579101562 3.25720953941345215 0.462333112955093384 255 0 246 144 112
5.83879470825195312 3.24374175071716309 0.484681248664855957 255 0 246 144 112
5.8047943115234375 3.26732087135314941 0.426910430192947388 255 0 246 144 112
5.81546163558959961 3.40801143646240234 0.409756749868392944 255 0 246 144 112
5.76382827758789062 3.39000797271728516 0.455986946821212769 255 0 246 144 112
5.81373882293701172 3.39122748374938965 0.436588078737258911 255 0 246 144 112
5.84467458724975586 3.42580747604370117 0.471579074859619141 255 0 246 144 112
5.78631782531738281 3.3706672191619873 0.460666060447692871 255 0 246 144 112
5.79375791549682617 3.37421607971191406 0.441374421119689941 255 0 246 144 112
5.77689790725708008 3.37184882164001465 0.41750672459602356 255 0 246 144 112
5.81621170043945312 3.3590550422668457 0.437742888927459717 255 0 246 144 112
5.83044338226318359 3.38010716438293457 0.443113803863525391 255 0 246 144 112
5.80675697326660156 3.38704919815063477 0.47174951434135437 255 0 246 144 112
5.83821630477905273 3.3572535514831543 0.45949062705039978 255 0 246 144 112
5.84722805023193359 3.30585145950317383 0.360254645347595215 255 0 246 144 112
5.55643701553344727 3.23953413963317871 0.25839194655418396 255 0 246 144 112
5.5716094970703125 3.19811582565307617 0.281712532043457031 255 0 246 144 112
5.56413602828979492 3.18280744552612305 0.229536354541778564 255 0 246 144 112
5.55446100234985352 3.29078340530395508 0.225937545299530029 255 0 246 144 112
5.78518152236938477 3.50713992118835449 0.196700334548950195 255 0 246 144 112
5.77968168258666992 3.49740076065063477 0.249855279922485352 255 0 246 144 112
5.75289154052734375 3.50295186042785645 0.173585906624794006 255 0 246 144 112
5.67825126647949219 3.24844121932983398 0.49919620156288147 255 0 246 144 112
5.82924985885620117 3.32089447975158691 0.521015524864196777 255 0 246 144 112
5.80748653411865234 3.33181405067443848 0.494685262441635132 255 0 246 144 112
5.83118867874145508 3.36799097061157227 0.530894637107849121 255 0 246 144 112
5.83410882949829102 3.32766938209533691 0.547514975070953369 255 0 246 144 112
5.83194255828857422 3.32685613632202148 0.49963805079460144 255 0 246 144 112
5.77990436553955078 3.34414005279541016 0.477795004844665527 255 0 246 144 112
5.7617034912109375 3.48592376708984375 0.174057304859161377 255 0 246 144 112
5.86516571044921875 3.30239462852478027 0.517140507698059082 255 0 246 144 112
5.86874055862426758 3.2869105339050293 0.53488624095916748 255 0 246 144 112
5.85115385055541992 3.29743695259094238 0.496862113475799561 255 0 246 144 112
5.88053607940673828 3.34536004066467285 0.533935666084289551 255 0 246 144 112
5.85120439529418945 3.32869720458984375 0.542109966278076172 255 0 246 144 112
5.72858619689941406 3.44970607757568359 0.493126720190048218 255 0 246 144 112
5.74951505661010742 3.50526881217956543 0.496776759624481201 255 0 246 144 112
5.57563352584838867 3.40111041069030762 0.189269974827766418 255 0 246 144 112
5.57465076446533203 3.40584135055541992 0.160874441266059875 255 0 246 144 112
5.54227828979492188 3.3570103645324707 0.189909279346466064 255 0 246 144 112
5.56635284423828125 3.374908447265625 0.185216024518013 255 0 246 144 112
5.83557701110839844 3.29616880416870117 0.465585559606552124 255 0 246 144 112
5.81213855743408203 3.29494166374206543 0.406790345907211304 255 0 246 144 112
5.78633832931518555 3.32007718086242676 0.464998424053192139 255 0 246 144 112
5.81270360946655273 3.32186627388000488 0.468147844076156616 255 0 246 144 112
5.81543588638305664 3.33486008644104004 0.445516914129257202 255 0 246 144 112
5.76005268096923828 3.28723454475402832 0.438270777463912964 255 0 246 144 112
5.81974363327026367 3.30005669593811035 0.440764188766479492 255 0 246 144 112
5.76268100738525391 3.29988837242126465 0.411481350660324097 255 0 246 144 112
5.78940391540527344 3.32799291610717773 0.429105132818222046 255 0 246 144 112
5.76314544677734375 3.34290599822998047 0.408346712589263916 255 0 246 144 112
5.71385049819946289 3.33298993110656738 0.395445555448532104 255 0 246 144 112
5.74743318557739258 3.32196378707885742 0.382862001657485962 255 0 246 144 112
5.62644386291503906 3.46401190757751465 0.251916587352752686 255 0 246 144 112
5.64499902725219727 3.43065452575683594 0.317838340997695923 255 0 246 144 112
5.90545654296875 3.45126581192016602 0.518813788890838623 255 0 246 144 112
5.88606023788452148 3.47466230392456055 0.49826011061668396 255 0 246 144 112
5.87858772277832031 3.46231675148010254 0.459738343954086304 255 0 246 144 112
5.89927959442138672 3.46168017387390137 0.494393140077590942 255 0 246 144 112
5.85430288314819336 3.49514031410217285 0.509354531764984131 255 0 246 144 112
5.87166261672973633 3.48493623733520508 0.511220335960388184 255 0 246 144 112
5.88840341567993164 3.44691658020019531 0.551801025867462158 255 0 246 144 112
5.73158979415893555 3.42856669425964355 0.0927391797304153442 255 0 246 144 112
5.66959238052368164 3.46378064155578613 0.108867578208446503 255 0 246 144 112
5.69738435745239258 3.46393728256225586 0.119670987129211426 255 0 246 144 112
5.69473791122436523 3.50769996643066406 0.121239885687828064 255 0 246 144 112
5.72939109802246094 3.50260615348815918 0.147103592753410339 255 0 246 144 112
5.71644020080566406 3.44513249397277832 0.115440003573894501 255 0 246 144 112
5.67671585083007812 3.23114418983459473 0.456388711929321289 255 0 246 144 112
5.70855093002319336 3.19107294082641602 0.491942107677459717 255 0 246 144 112
5.72208595275878906 3.18719100952148438 0.531667470932006836 255 0 246 144 112
5.69027042388916016 3.26212215423583984 0.543124854564666748 255 0 246 144 112
5.69245004653930664 3.23215460777282715 0.532646119594573975 255 0 246 144 112
5.60384559631347656 3.18111324310302734 0.318675786256790161 255 0 246 144 112
5.63233280181884766 3.2692108154296875 0.417204111814498901 255 0 246 144 112
5.57457208633422852 3.23279905319213867 0.309252232313156128 255 0 246 144 112
5.60047435760498047 3.26166725158691406 0.349254757165908813 255 0 246 144 112
5.61255216598510742 3.23729228973388672 0.378868162631988525 255 0 246 144 112
5.65484094619750977 3.18668866157531738 0.361369818449020386 255 0 246 144 112
5.63294792175292969 3.1971135139465332 0.360171496868133545 255 0 246 144 112
5.81808853149414062 3.41798138618469238 0.469147652387619019 255 0 246 144 112
5.81148433685302734 3.35367631912231445 0.499620139598846436 255 0 246 144 112
5.75404787063598633 3.3948051929473877 0.481142491102218628 255 0 246 144 112
5.69069051742553711 3.46451830863952637 0.399503141641616821 255 0 246 144 112
5.59998416900634766 3.30292987823486328 0.109516076743602753 255 0 246 144 112
5.55453968048095703 3.2938225269317627 0.147248566150665283 255 0 246 144 112
5.55355548858642578 3.30976676940917969 0.124146990478038788 255 0 246 144 112
5.54349756240844727 3.3399813175201416 0.160741716623306274 255 0 246 144 112
5.55135393142700195 3.30856513977050781 0.175429224967956543 255 0 246 144 112
5.55297994613647461 3.32964038848876953 0.192470207810401917 255 0 246 144 112
5.56648921966552734 3.35034012794494629 0.209552168846130371 255 0 246 144 112
5.85217905044555664 3.39147472381591797 0.455690085887908936 255 0 246 144 112
5.83782291412353516 3.36699843406677246 0.393382847309112549 255 0 246 144 112
5.84479856491088867 3.36663651466369629 0.418196350336074829 255 0 246 144 112
5.85899019241333008 3.40953302383422852 0.437495380640029907 255 0 246 144 112
5.84271478652954102 3.3635246753692627 0.450476646423339844 255 0 246 144 112
5.85104942321777344 3.3642270565032959 0.475344866514205933 255 0 246 144 112
5.82827091217041016 3.4011085033416748 0.416170895099639893 255 0 246 144 112
5.84126758575439453 3.41546893119812012 0.427526414394378662 255 0 246 144 112
5.85891866683959961 3.4168403148651123 0.458254724740982056 255 0 246 144 112
5.88417863845825195 3.42215943336486816 0.493600517511367798 255 0 246 144 112
5.78393888473510742 3.44539093971252441 0.325159281492233276 255 0 246 144 112
5.75763559341430664 3.40073680877685547 0.255404770374298096 255 0 246 144 112
5.76472139358520508 3.26225543022155762 0.326612532138824463 255 0 246 144 112
5.7536468505859375 3.22781848907470703 0.349245727062225342 255 0 246 144 112
5.75971126556396484 3.22995114326477051 0.322011947631835938 255 0 246 144 112
5.77391862869262695 3.22420191764831543 0.326114296913146973 255 0 246 144 112
5.7531437873840332 3.20040154457092285 0.354713618755340576 255 0 246 144 112
5.83360099792480469 3.23990511894226074 0.387662947177886963 255 0 246 144 112
5.81305694580078125 3.25231766700744629 0.339751541614532471 255 0 246 144 112
5.82452487945556641 3.29659199714660645 0.332828819751739502 255 0 246 144 112
5.76659917831420898 3.21137547492980957 0.341756850481033325 255 0 246 144 112
5.79664421081542969 3.25447511672973633 0.317243665456771851 255 0 246 144 112
5.79628133773803711 3.21578693389892578 0.377248972654342651 255 0 246 144 112
5.76486301422119141 3.19429588317871094 0.36788901686668396 255 0 246 144 112
5.82515239715576172 3.23896098136901855 0.362598061561584473 255 0 246 144 112
5.67511796951293945 3.47691702842712402 0.358649671077728271 255 0 246 144 112
5.57541322708129883 3.34020018577575684 0.123479694128036499 255 0 246 144 112
5.6014399528503418 3.40503382682800293 0.126933619379997253 255 0 246 144 112
5.56207990646362305 3.36458158493041992 0.16061149537563324 255 0 246 144 112
5.76781415939331055 3.43525886535644531 0.271374046802520752 255 0 246 144 112
5.76387834548950195 3.40381908416748047 0.292419016361236572 255 0 246 144 112
5.77125835418701172 3.43649768829345703 0.301918745040893555 255 0 246 144 112
5.59137964248657227 3.4525303840637207 0.157485663890838623 255 0 246 144 112
5.6853337287902832 3.44753193855285645 0.0987095460295677185 255 0 246 144 112
5.61464881896972656 3.43964123725891113 0.117483913898468018 255 0 246 144 112
5.63912630081176758 3.45125818252563477 0.116272516548633575 255 0 246 144 112
5.60429811477661133 3.47499203681945801 0.150709688663482666 255 0 246 144 112
5.64456605911254883 3.47565507888793945 0.127800792455673218 255 0 246 144 112
5.65522241592407227 3.5155797004699707 0.127471327781677246 255 0 246 144 112
5.67672634124755859 3.49551200866699219 0.114541836082935333 255 0 246 144 112
5.67409467697143555 3.35844159126281738 0.155587673187255859 255 0 246 144 112
5.88556814193725586 3.43941283226013184 0.462117135524749756 255 0 246 144 112
5.86202335357666016 3.36648225784301758 0.494977235794067383 255 0 246 144 112
5.87682342529296875 3.36596012115478516 0.532591938972473145 255 0 246 144 112
5.88528156280517578 3.35738110542297363 0.552373707294464111 255 0 246 144 112
5.8618931770324707 3.36097264289855957 0.54835742712020874 255 0 246 144 112
5.88257074356079102 3.38922739028930664 0.533745706081390381 255 0 246 144 112
5.8273773193359375 3.40735197067260742 0.505008399486541748 255 0 246 144 112
5.85870218276977539 3.41998696327209473 0.507523477077484131 255 0 246 144 112
5.89871549606323242 3.42118048667907715 0.516159594058990479 255 0 246 144 112
5.85469150543212891 3.38786602020263672 0.537595808506011963 255 0 246 144 112
5.65189266204833984 3.27722287178039551 0.450828462839126587 255 0 246 144 112
5.6581110954284668 3.31499981880187988 0.440428763628005981 255 0 246 144 112
5.79156255722045898 3.48259401321411133 0.277506887912750244 255 0 246 144 112
5.75457906723022461 3.41592574119567871 0.247085914015769958 255 0 246 144 112
5.78295564651489258 3.46304535865783691 0.28912690281867981 255 0 246 144 112
5.81084728240966797 3.48567605018615723 0.261494815349578857 255 0 246 144 112
5.81793451309204102 3.50527548789978027 0.225602477788925171 255 0 246 144 112
5.82895183563232422 3.33978986740112305 0.428431123495101929 255 0 246 144 112
5.83909511566162109 3.34059858322143555 0.453413486480712891 255 0 246 144 112
5.55233860015869141 3.21984505653381348 0.213692247867584229 255 0 246 144 112
5.5481877326965332 3.26979517936706543 0.209198936820030212 255 0 246 144 112
5.55179643630981445 3.24091339111328125 0.170080631971359253 255 0 246 144 112
5.56543302536010742 3.19289159774780273 0.174934148788452148 255 0 246 144 112
5.63481044769287109 3.39913415908813477 0.109471753239631653 255 0 246 144 112
5.64645195007324219 3.41822075843811035 0.101290404796600342 255 0 246 144 112
5.66232204437255859 3.43744373321533203 0.105647780001163483 255 0 246 144 112
5.60462284088134766 3.3455054759979248 0.117380976676940918 255 0 246 144 112
5.65752363204956055 3.37367010116577148 0.128729701042175293 255 0 246 144 112
5.57961225509643555 3.424285888671875 0.176421180367469788 255 0 246 144 112
5.60365724563598633 3.50075459480285645 0.17801019549369812 255 0 246 144 112
5.84465599060058594 3.23594784736633301 0.506144940853118896 255 0 246 144 112
5.79583311080932617 3.23779892921447754 0.492988497018814087 255 0 246 144 112
5.59271764755249023 3.1623082160949707 0.279881566762924194 255 0 246 144 112
5.63957881927490234 3.3612511157989502 0.113361380994319916 255 0 246 144 112
5.6088104248046875 3.29099106788635254 0.125088557600975037 255 0 246 144 112
5.64085102081298828 3.3173677921295166 0.127153784036636353 255 0 246 144 112
5.61746978759765625 3.3157956600189209 0.107709340751171112 255 0 246 144 112
5.73853397369384766 3.18875479698181152 0.548199474811553955 255 0 246 144 112
5.70457983016967773 3.25588393211364746 0.581182301044464111 255 0 246 144 112
5.71111965179443359 3.22808599472045898 0.569311261177062988 255 0 246 144 112
5.73133039474487305 3.37276148796081543 0.575599431991577148 255 0 246 144 112
5.86312580108642578 3.28908944129943848 0.783869683742523193 255 0 246 144 112
5.85650777816772461 3.31859397888183594 0.842402279376983643 255 0 246 144 112
5.91951704025268555 3.32707691192626953 0.818146646022796631 255 0 246 144 112
5.86570644378662109 3.35026979446411133 0.810562372207641602 255 0 246 144 112
5.88206863403320312 3.30110716819763184 0.867995798587799072 255 0 246 144 112
5.89627981185913086 3.34172844886779785 0.81949537992477417 255 0 246 144 112
5.84898090362548828 3.34541893005371094 0.845204651355743408 255 0 246 144 112
5.87102079391479492 3.35416293144226074 0.868908405303955078 255 0 246 144 112
6.003662109375 3.22056388854980469 1.05989742279052734 255 0 246 144 112
5.99528264999389648 3.21835708618164062 1.01798534393310547 255 0 246 144 112
5.88713932037353516 3.32250404357910156 0.927109062671661377 255 0 246 144 112
5.87686634063720703 3.33514094352722168 0.908574819564819336 255 0 246 144 112
5.87806034088134766 3.34642958641052246 0.900782525539398193 255 0 246 144 112
5.90265560150146484 3.34533023834228516 0.918472468852996826 255 0 246 144 112
5.99693536758422852 3.21958780288696289 0.991319894790649414 255 0 246 144 112
5.81529140472412109 3.3424384593963623 0.761401832103729248 255 0 246 144 112
5.82932519912719727 3.34969091415405273 0.797960937023162842 255 0 246 144 112
5.7949376106262207 3.33678865432739258 0.695215582847595215 255 0 246 144 112
5.84725522994995117 3.3334510326385498 0.839368283748626709 255 0 246 144 112
5.90947151184082031 3.32874774932861328 0.970777809619903564 255 0 246 144 112
5.83513975143432617 3.43388795852661133 0.598074853420257568 255 0 246 144 112
5.86360931396484375 3.38501763343811035 0.581354856491088867 255 0 246 144 112
5.88319873809814453 3.42361974716186523 0.56341475248336792 255 0 246 144 112
5.81556415557861328 3.37357711791992188 0.740768730640411377 255 0 246 144 112
5.80738592147827148 3.35804343223571777 0.746366322040557861 255 0 246 144 112
5.83080673217773438 3.34995460510253906 0.700342237949371338 255 0 246 144 112
5.96236038208007812 3.24931001663208008 0.988067984580993652 255 0 246 144 112
5.94082927703857422 3.26660799980163574 0.944236099720001221 255 0 246 144 112
5.96109771728515625 3.24855875968933105 0.968742012977600098 255 0 246 144 112
5.96943998336791992 3.30654811859130859 1.05058157444000244 255 0 246 144 112
5.91932296752929688 3.29281020164489746 0.768324673175811768 255 0 246 144 112
5.89342927932739258 3.33502817153930664 0.771143019199371338 255 0 246 144 112
5.85091924667358398 3.34923267364501953 0.764722287654876709 255 0 246 144 112
5.89783525466918945 3.32178044319152832 0.720784306526184082 255 0 246 144 112
5.91298723220825195 3.31901407241821289 0.776597559452056885 255 0 246 144 112
5.84671592712402344 3.28997421264648438 0.74795985221862793 255 0 246 144 112
5.87487506866455078 3.33783078193664551 0.567281663417816162 255 0 246 144 112
5.84966754913330078 3.29812383651733398 0.594015836715698242 255 0 246 144 112
5.87987899780273438 3.31135964393615723 0.561022698879241943 255 0 246 144 112
5.85196876525878906 3.36005640029907227 0.59108346700668335 255 0 246 144 112
5.86480998992919922 3.32262182235717773 0.598608553409576416 255 0 246 144 112
5.88506841659545898 3.29218244552612305 0.609461545944213867 255 0 246 144 112
5.87650918960571289 3.29909062385559082 0.59208446741104126 255 0 246 144 112
5.81846761703491211 3.37155818939208984 0.62384331226348877 255 0 246 144 112
5.79340219497680664 3.38830804824829102 0.619464874267578125 255 0 246 144 112
5.82096385955810547 3.39166927337646484 0.605674266815185547 255 0 246 144 112
5.76883792877197266 3.40691685676574707 0.610284626483917236 255 0 246 144 112
5.77574062347412109 3.49463963508605957 0.565739750862121582 255 0 246 144 112
5.83449077606201172 3.48126840591430664 0.5808066725730896 255 0 246 144 112
5.78644084930419922 3.50548291206359863 0.571572780609130859 255 0 246 144 112
5.79993724822998047 3.4696190357208252 0.601800978183746338 255 0 246 144 112
5.85087060928344727 3.49741077423095703 0.542553186416625977 255 0 246 144 112
5.78845310211181641 3.42615413665771484 0.616356372833251953 255 0 246 144 112
5.78240013122558594 3.4594719409942627 0.601418018341064453 255 0 246 144 112
5.83978796005249023 3.24999713897705078 0.558366835117340088 255 0 246 144 112
5.71569156646728516 3.30088400840759277 0.572471678256988525 255 0 246 144 112
5.87111186981201172 3.46309781074523926 0.563418686389923096 255 0 246 144 112
5.74339151382446289 3.38787031173706055 0.590027451515197754 255 0 246 144 112
5.93114471435546875 3.26473903656005859 0.692798912525177002 255 0 246 144 112
5.92873811721801758 3.25180292129516602 0.687943577766418457 255 0 246 144 112
5.92644691467285156 3.24023818969726562 0.744589447975158691 255 0 246 144 112
5.99794578552246094 3.25197911262512207 0.953972697257995605 255 0 246 144 112
5.91407108306884766 3.31290578842163086 0.96904069185256958 255 0 246 144 112
5.9798579216003418 3.24848484992980957 1.01870715618133545 255 0 246 144 112
5.94906282424926758 3.30979204177856445 1.02302455902099609 255 0 246 144 112
5.9504551887512207 3.34048795700073242 1.00580000877380371 255 0 246 144 112
5.9379124641418457 3.34580159187316895 0.982160091400146484 255 0 246 144 112
5.97755670547485352 3.31969761848449707 0.97589486837387085 255 0 246 144 112
5.92799901962280273 3.3359825611114502 0.98942941427230835 255 0 246 144 112
5.92292690277099609 3.31034159660339355 0.990320980548858643 255 0 246 144 112
5.92027044296264648 3.34548401832580566 0.969313442707061768 255 0 246 144 112
5.98789834976196289 3.31982302665710449 1.01140975952148438 255 0 246 144 112
5.76490879058837891 3.34352612495422363 0.635251462459564209 255 0 246 144 112
5.76904630661010742 3.38932967185974121 0.629901707172393799 255 0 246 144 112
5.78708171844482422 3.3863530158996582 0.67133718729019165 255 0 246 144 112
5.78406620025634766 3.36083674430847168 0.693733572959899902 255 0 246 144 112
5.79787635803222656 3.38140749931335449 0.687737941741943359 255 0 246 144 112
5.92750835418701172 3.25106334686279297 0.801921427249908447 255 0 246 144 112
5.88279008865356445 3.27089071273803711 0.782468795776367188 255 0 246 144 112
5.88049936294555664 3.27533054351806641 0.817777693271636963 255 0 246 144 112
5.89525365829467773 3.24516630172729492 0.64584195613861084 255 0 246 144 112
5.91880559921264648 3.26242303848266602 0.629858195781707764 255 0 246 144 112
5.90461063385009766 3.24097371101379395 0.631581962108612061 255 0 246 144 112
5.87234687805175781 3.27666783332824707 0.572551369667053223 255 0 246 144 112
5.86240005493164062 3.24621033668518066 0.547057390213012695 255 0 246 144 112
5.90580272674560547 3.25721931457519531 0.586446404457092285 255 0 246 144 112
5.89482355117797852 3.26608848571777344 0.588725864887237549 255 0 246 144 112
5.89531040191650391 3.25266337394714355 0.606058716773986816 255 0 246 144 112
6.03157711029052734 3.31505894660949707 1.04420244693756104 255 0 246 144 112
6.03679180145263672 3.31346845626831055 1.08864486217498779 255 0 246 144 112
6.02102518081665039 3.27327680587768555 1.08819389343261719 255 0 246 144 112
5.98753213882446289 3.32194852828979492 1.0575176477432251 255 0 246 144 112
6.00526332855224609 3.30732297897338867 1.07692575454711914 255 0 246 144 112
5.94461202621459961 3.31709575653076172 0.948697090148925781 255 0 246 144 112
5.90618133544921875 3.29732441902160645 0.930726110935211182 255 0 246 144 112
5.90646553039550781 3.34109377861022949 0.876065492630004883 255 0 246 144 112
5.94842815399169922 3.27452659606933594 0.888000190258026123 255 0 246 144 112
5.94763040542602539 3.29835271835327148 0.87338489294052124 255 0 246 144 112
5.94547653198242188 3.30541276931762695 0.886336863040924072 255 0 246 144 112
5.93340635299682617 3.31595420837402344 0.90798795223236084 255 0 246 144 112
5.96776580810546875 3.2931969165802002 0.917185425758361816 255 0 246 144 112
5.97577571868896484 3.29930424690246582 0.937645435333251953 255 0 246 144 112
5.96387624740600586 3.27055621147155762 0.925867736339569092 255 0 246 144 112
5.83052444458007812 3.29558944702148438 0.666692137718200684 255 0 246 144 112
5.80486392974853516 3.31514239311218262 0.66776043176651001 255 0 246 144 112
5.79728412628173828 3.30369162559509277 0.618934512138366699 255 0 246 144 112
6.01411724090576172 3.29246973991394043 0.953615188598632812 255 0 246 144 112
5.74198341369628906 3.25082898139953613 0.594015240669250488 255 0 246 144 112
5.81722450256347656 3.26038289070129395 0.583526730537414551 255 0 246 144 112
5.78824520111083984 3.27018046379089355 0.594048678874969482 255 0 246 144 112
5.93195581436157227 3.25234627723693848 0.770302951335906982 255 0 246 144 112
5.93928766250610352 3.25473833084106445 0.736755013465881348 255 0 246 144 112
5.94129800796508789 3.25464510917663574 0.800873279571533203 255 0 246 144 112
5.94079923629760742 3.26808595657348633 0.785089254379272461 255 0 246 144 112
5.82782506942749023 3.29213690757751465 0.606674492359161377 255 0 246 144 112
5.83107137680053711 3.29996728897094727 0.627936303615570068 255 0 246 144 112
5.77748441696166992 3.29605698585510254 0.609919250011444092 255 0 246 144 112
5.99234247207641602 3.24536466598510742 1.04612743854522705 255 0 246 144 112
5.88365364074707031 3.26664590835571289 0.649038314819335938 255 0 246 144 112
5.88489103317260742 3.32147026062011719 0.678299248218536377 255 0 246 144 112
5.82726097106933594 3.34914922714233398 0.647708892822265625 255 0 246 144 112
5.86010885238647461 3.33496928215026855 0.661647558212280273 255 0 246 144 112
5.87032365798950195 3.2908933162689209 0.695101439952850342 255 0 246 144 112
5.86032390594482422 3.28758835792541504 0.719339668750762939 255 0 246 144 112
5.83782243728637695 3.29405927658081055 0.714333832263946533 255 0 246 144 112
5.89743709564208984 3.28684735298156738 0.613669514656066895 255 0 246 144 112
5.85700654983520508 3.31979513168334961 0.658937036991119385 255 0 246 144 112
5.89669895172119141 3.30631136894226074 0.660932540893554688 255 0 246 144 112
5.84439516067504883 3.33751463890075684 0.62722700834274292 255 0 246 144 112
5.84618186950683594 3.34154248237609863 0.696687817573547363 255 0 246 144 112
5.91702413558959961 3.27551102638244629 0.644088149070739746 255 0 246 144 112
5.88211441040039062 3.26768207550048828 0.696932137012481689 255 0 246 144 112
5.88086700439453125 3.31800651550292969 0.66554182767868042 255 0 246 144 112
5.88254976272583008 3.33599066734313965 0.707148551940917969 255 0 246 144 112
5.89672136306762695 3.26508641242980957 0.830145716667175293 255 0 246 144 112
5.93570995330810547 3.2633063793182373 0.852392911911010742 255 0 246 144 112
5.94181585311889648 3.27323532104492188 0.844069361686706543 255 0 246 144 112
5.90977668762207031 3.26705360412597656 0.875950038433074951 255 0 246 144 112
5.72834873199462891 3.34499549865722656 0.579859435558319092 255 0 246 144 112
5.74347496032714844 3.32593059539794922 0.621444880962371826 255 0 246 144 112
5.72697067260742188 3.28125739097595215 0.606160402297973633 255 0 246 144 112
5.75931882858276367 3.36769270896911621 0.636460602283477783 255 0 246 144 112
5.88421487808227539 3.26883816719055176 0.728896677494049072 255 0 246 144 112
5.90820837020874023 3.2598261833190918 0.783695399761199951 255 0 246 144 112
5.90622043609619141 3.24331927299499512 0.708187222480773926 255 0 246 144 112
6.02656269073486328 3.30539345741271973 0.98268049955368042 255 0 246 144 112
6.01962089538574219 3.31299662590026855 1.00918662548065186 255 0 246 144 112
6.02001190185546875 3.30643320083618164 0.969837367534637451 255 0 246 144 112
5.89277410507202148 3.38406229019165039 0.551832139492034912 255 0 246 144 112
5.93083572387695312 3.26710343360900879 0.912650883197784424 255 0 246 144 112
5.91939544677734375 3.2847447395324707 0.707753539085388184 255 0 246 144 112
5.83840370178222656 3.36453437805175781 0.799260914325714111 255 0 246 144 112
5.8495326042175293 3.3602139949798584 0.828194200992584229 255 0 246 144 112
5.92706108093261719 3.30900788307189941 0.804405927658081055 255 0 246 144 112
5.8122410774230957 3.23662900924682617 0.541932463645935059 255 0 246 144 112
5.66413784027099609 3.56561446189880371 0.183442428708076477 255 0 246 144 112
5.63214588165283203 3.56852507591247559 0.200432300567626953 255 0 246 144 112
5.61050176620483398 3.5369117259979248 0.196106076240539551 255 0 246 144 112
5.64595890045166016 3.58254671096801758 0.215369150042533875 255 0 246 144 112
5.6184535026550293 3.55029129981994629 0.176427349448204041 255 0 246 144 112
5.62766075134277344 3.51570320129394531 0.218520402908325195 255 0 246 144 112
5.69029664993286133 3.55002284049987793 0.156146779656410217 255 0 246 144 112
5.7208714485168457 3.55806636810302734 0.163516327738761902 255 0 246 144 112
5.67959976196289062 3.59210610389709473 0.219470486044883728 255 0 246 144 112
5.71510076522827148 3.57132244110107422 0.185394778847694397 255 0 246 144 112
5.72129201889038086 3.58034992218017578 0.203548416495323181 255 0 246 144 112
5.65729808807373047 3.59454464912414551 0.234682649374008179 255 0 246 144 112
5.65548419952392578 3.53307533264160156 0.270372748374938965 255 0 246 144 112
5.78939723968505859 3.51367902755737305 0.540408492088317871 255 0 246 144 112
5.8117976188659668 3.51117324829101562 0.525929272174835205 255 0 246 144 112
5.77846670150756836 3.50705289840698242 0.472086727619171143 255 0 246 144 112
5.78327655792236328 3.5161137580871582 0.408059060573577881 255 0 246 144 112
5.81451797485351562 3.50735831260681152 0.393184125423431396 255 0 246 144 112
5.80586147308349609 3.50202775001525879 0.427470505237579346 255 0 246 144 112
5.63218307495117188 3.53147649765014648 0.152740553021430969 255 0 246 144 112
5.65917873382568359 3.53796958923339844 0.153718307614326477 255 0 246 144 112
5.72353458404541016 3.51835465431213379 0.432187110185623169 255 0 246 144 112
5.79774093627929688 3.50932574272155762 0.229569271206855774 255 0 246 144 112
5.76606559753417969 3.51674842834472656 0.179094105958938599 255 0 246 144 112
5.83008432388305664 3.53503799438476562 0.245635330677032471 255 0 246 144 112
5.80745077133178711 3.55147290229797363 0.230226188898086548 255 0 246 144 112
5.81858921051025391 3.54138588905334473 0.275399535894393921 255 0 246 144 112
5.80393791198730469 3.55749750137329102 0.276562511920928955 255 0 246 144 112
5.76685857772827148 3.58089160919189453 0.260264873504638672 255 0 246 144 112
5.69413852691650391 3.60323643684387207 0.27998688817024231 255 0 246 144 112
5.7309727668762207 3.59193825721740723 0.242652997374534607 255 0 246 144 112
5.71232318878173828 3.48865699768066406 0.129217013716697693 255 0 246 144 112
5.72899150848388672 3.50451040267944336 0.453679889440536499 255 0 246 144 112
5.74625778198242188 3.5122988224029541 0.45514872670173645 255 0 246 144 112
5.77008676528930664 3.56719565391540527 0.200576677918434143 255 0 246 144 112
5.78428220748901367 3.57214832305908203 0.239963307976722717 255 0 246 144 112
5.7989039421081543 3.55139946937561035 0.208877012133598328 255 0 246 144 112
5.79840803146362305 3.5360267162322998 0.18574129045009613 255 0 246 144 112
5.81377506256103516 3.51722049713134766 0.205257922410964966 255 0 246 144 112
5.77148056030273438 3.55194783210754395 0.182829990983009338 255 0 246 144 112
5.77683210372924805 3.52587294578552246 0.161908343434333801 255 0 246 144 112
5.69283103942871094 3.57932066917419434 0.323418140411376953 255 0 246 144 112
5.75931072235107422 3.57822895050048828 0.303148239850997925 255 0 246 144 112
5.72560882568359375 3.56428742408752441 0.362110316753387451 255 0 246 144 112
5.70990324020385742 3.57021260261535645 0.353937476873397827 255 0 246 144 112
5.70952987670898438 3.54809284210205078 0.379227250814437866 255 0 246 144 112
5.68403244018554688 3.50937509536743164 0.351249992847442627 255 0 246 144 112
5.71105670928955078 3.58458757400512695 0.326783627271652222 255 0 246 144 112
5.67571353912353516 3.59405112266540527 0.276666969060897827 255 0 246 144 112
5.82945156097412109 3.51076912879943848 0.338830560445785522 255 0 246 144 112
5.82274770736694336 3.52833437919616699 0.310988038778305054 255 0 246 144 112
5.80115032196044922 3.54910826683044434 0.322319895029067993 255 0 246 144 112
5.74023723602294922 3.53316307067871094 0.406253725290298462 255 0 246 144 112
5.78300142288208008 3.54803371429443359 0.350177258253097534 255 0 246 144 112
5.72010517120361328 3.52827191352844238 0.128382027149200439 255 0 246 144 112
5.74538326263427734 3.52637791633605957 0.146915048360824585 255 0 246 144 112
