ply
format ascii 1.0
element vertex 591
property float x
property float y
property float z
property uchar red
property uchar green
property uchar blue
property uchar alpha
property uint label
end_header
1.33597016334533691 2.0201575756072998 1.66964578628540039 255 166 254 235 21
1.3411409854888916 2.04689836502075195 1.62510776519775391 255 166 254 235 21
1.33229970932006836 1.93006730079650879 2.02187013626098633 255 166 254 235 21
1.36182355880737305 2.16680407524108887 1.53575515747070312 255 166 254 235 21
1.44535160064697266 1.82767689228057861 1.54182755947113037 255 166 254 235 21
1.40371024608612061 1.86680209636688232 1.56344234943389893 255 166 254 235 21
1.38362002372741699 1.88344264030456543 1.56883454322814941 255 166 254 235 21
1.42787075042724609 1.84217202663421631 1.56418812274932861 255 166 254 235 21
1.49918615818023682 1.58210873603820801 2.1287684440612793 255 166 254 235 21
1.43617391586303711 1.78499996662139893 2.01249980926513672 255 166 254 235 21
1.35022318363189697 2.08135366439819336 1.52796876430511475 255 166 254 235 21
1.45744657516479492 1.67163074016571045 2.0504763126373291 255 166 254 235 21
1.49276268482208252 1.59118807315826416 2.07934331893920898 255 166 254 235 21
1.48005223274230957 1.63189756870269775 2.03364324569702148 255 166 254 235 21
1.34788823127746582 2.0887913703918457 1.67304480075836182 255 166 254 235 21
1.34630060195922852 1.91977512836456299 1.68856966495513916 255 166 254 235 21
1.43327522277832031 1.8268284797668457 1.67734229564666748 255 166 254 235 21
1.39063489437103271 1.86513662338256836 1.72483682632446289 255 166 254 235 21
1.41332948207855225 1.84057378768920898 1.75165176391601562 255 166 254 235 21
1.37629127502441406 1.89212024211883545 1.65292656421661377 255 166 254 235 21
1.36301231384277344 1.89687526226043701 1.73775434494018555 255 166 254 235 21
1.36836528778076172 1.87998044490814209 1.82461798191070557 255 166 254 235 21
1.39782381057739258 1.86047613620758057 1.78300750255584717 255 166 254 235 21
1.35359549522399902 1.90704584121704102 1.77362692356109619 255 166 254 235 21
1.43968009948730469 1.71499991416931152 1.68499994277954102 255 166 254 235 21
1.43945002555847168 1.71751499176025391 1.7504417896270752 255 166 254 235 21
1.33409714698791504 1.96591496467590332 1.55119895935058594 255 166 254 235 21
1.33007371425628662 1.99188220500946045 1.58351027965545654 255 166 254 235 21
1.35627925395965576 2.11694836616516113 1.53899478912353516 255 166 254 235 21
1.36242318153381348 2.14217877388000488 1.57376670837402344 255 166 254 235 21
1.33245742321014404 1.95550882816314697 1.67680203914642334 255 166 254 235 21
1.32928812503814697 1.95981729030609131 1.77860593795776367 255 166 254 235 21
1.32953727245330811 1.97671234607696533 1.70427703857421875 255 166 254 235 21
1.33213424682617188 1.94579386711120605 1.74978029727935791 255 166 254 235 21
1.33490622043609619 1.93327558040618896 1.76687824726104736 255 166 254 235 21
1.33377087116241455 1.96145784854888916 1.84776663780212402 255 166 254 235 21
1.33174073696136475 1.9347912073135376 1.819100022315979 255 166 254 235 21
1.38559639453887939 1.8489001989364624 2.10370206832885742 255 166 254 235 21
1.3596351146697998 1.87577831745147705 2.06504487991333008 255 166 254 235 21
1.38051092624664307 1.91518986225128174 2.14273858070373535 255 166 254 235 21
1.36856687068939209 1.86838972568511963 2.12029933929443359 255 166 254 235 21
1.35728609561920166 1.89448702335357666 2.09826564788818359 255 166 254 235 21
1.40234291553497314 1.89638721942901611 2.17120695114135742 255 166 254 235 21
1.46515846252441406 1.64411592483520508 1.78562498092651367 255 166 254 235 21
1.47598850727081299 1.63307857513427734 1.76705813407897949 255 166 254 235 21
1.3721005916595459 1.85867059230804443 1.94459521770477295 255 166 254 235 21
1.37751901149749756 1.86322021484375 1.8588336706161499 255 166 254 235 21
1.36961698532104492 1.85907578468322754 1.99248814582824707 255 166 254 235 21
1.43123447895050049 1.73984050750732422 1.99137496948242188 255 166 254 235 21
1.46588981151580811 1.66511142253875732 2.01215100288391113 255 166 254 235 21
1.44401764869689941 1.69551753997802734 2.0441279411315918 255 166 254 235 21
1.08402657508850098 2.89328336715698242 0.0749977529048919678 255 166 254 235 21
0.921759366989135742 3.29197883605957031 0.0883826464414596558 255 166 254 235 21
1.2831413745880127 2.65820932388305664 0.142230495810508728 255 166 254 235 21
1.11570775508880615 2.8515775203704834 0.276296377182006836 255 166 254 235 21
1.14436471462249756 2.80899596214294434 0.301831275224685669 255 166 254 235 21
1.13483333587646484 2.82091379165649414 0.272045403718948364 255 166 254 235 21
1.09412646293640137 3.13088011741638184 0.21952451765537262 255 166 254 235 21
1.08411204814910889 3.14855408668518066 0.185253813862800598 255 166 254 235 21
1.05660367012023926 3.16718912124633789 0.200193241238594055 255 166 254 235 21
1.16620016098022461 2.73514723777770996 0.422515332698822021 255 166 254 235 21
1.18852341175079346 2.6877439022064209 0.467118918895721436 255 166 254 235 21
1.19586646556854248 2.6842339038848877 0.429765164852142334 255 166 254 235 21
0.866469800472259521 3.46262598037719727 0.299542695283889771 255 166 254 235 21
0.847674429416656494 3.48741412162780762 0.28164827823638916 255 166 254 235 21
1.07277214527130127 2.99394321441650391 0.0741364136338233948 255 166 254 235 21
1.08028388023376465 3.05351090431213379 0.0806603729724884033 255 166 254 235 21
1.25734627246856689 2.58500003814697266 0.424999982118606567 255 166 254 235 21
1.26294052600860596 2.59962797164916992 0.493854314088821411 255 166 254 235 21
1.25739383697509766 2.58391833305358887 0.539851963520050049 255 166 254 235 21
1.26363646984100342 2.60112619400024414 0.538482785224914551 255 166 254 235 21
1.01690161228179932 3.20176935195922852 0.145105034112930298 255 166 254 235 21
1.03786265850067139 3.18285608291625977 0.146931454539299011 255 166 254 235 21
1.0364537239074707 3.14800310134887695 0.0875919610261917114 255 166 254 235 21
0.989219605922698975 3.18504786491394043 0.092180103063583374 255 166 254 235 21
1.09404301643371582 3.02543067932128906 0.354165881872177124 255 166 254 235 21
1.08451640605926514 2.98076772689819336 0.362160146236419678 255 166 254 235 21
1.09013986587524414 3.05640506744384766 0.390369623899459839 255 166 254 235 21
0.993336141109466553 3.21430206298828125 0.268817692995071411 255 166 254 235 21
0.989272356033325195 3.2398536205291748 0.253943473100662231 255 166 254 235 21
0.989008665084838867 3.1957244873046875 0.342122018337249756 255 166 254 235 21
0.85554814338684082 3.46423912048339844 0.0917386561632156372 255 166 254 235 21
0.869106590747833252 3.43625998497009277 0.0746059268712997437 255 166 254 235 21
0.844713687896728516 3.48984718322753906 0.0829504877328872681 255 166 254 235 21
0.897824883460998535 3.4251856803894043 0.349727064371109009 255 166 254 235 21
0.960145711898803711 3.24715638160705566 0.0885502174496650696 255 166 254 235 21
1.00995659828186035 3.1938321590423584 0.123625114560127258 255 166 254 235 21
0.997810959815979004 3.27152061462402344 0.147122994065284729 255 166 254 235 21
1.09795379638671875 3.04494047164916992 0.320861876010894775 255 166 254 235 21
1.09763836860656738 3.06944513320922852 0.353789836168289185 255 166 254 235 21
1.01320803165435791 3.19438076019287109 0.200452044606208801 255 166 254 235 21
0.890170931816101074 3.43489742279052734 0.420724302530288696 255 166 254 235 21
0.916108191013336182 3.4034278392791748 0.394098013639450073 255 166 254 235 21
0.942409694194793701 3.36484313011169434 0.418883383274078369 255 166 254 235 21
0.913594186305999756 3.4004671573638916 0.457447230815887451 255 166 254 235 21
0.888666212558746338 3.43332719802856445 0.462275832891464233 255 166 254 235 21
0.932847738265991211 3.40718245506286621 0.148317292332649231 255 166 254 235 21
0.94103926420211792 3.37920069694519043 0.189697623252868652 255 166 254 235 21
0.925823450088500977 3.40600824356079102 0.185602247714996338 255 166 254 235 21
0.938946306705474854 3.38609695434570312 0.224903017282485962 255 166 254 235 21
0.862466216087341309 3.46957063674926758 0.417649149894714355 255 166 254 235 21
0.867313385009765625 3.45909953117370605 0.340352803468704224 255 166 254 235 21
0.843534529209136963 3.4823613166809082 0.359790682792663574 255 166 254 235 21
0.835816383361816406 3.50413250923156738 0.324018806219100952 255 166 254 235 21
1.07893478870391846 2.90947484970092773 0.429610878229141235 255 166 254 235 21
1.08037805557250977 2.87960672378540039 0.497547358274459839 255 166 254 235 21
1.09054923057556152 2.88494873046875 0.396638810634613037 255 166 254 235 21
1.2308807373046875 2.55680513381958008 0.0794015824794769287 255 166 254 235 21
1.25137186050415039 2.59114575386047363 0.0807108134031295776 255 166 254 235 21
0.905275583267211914 3.33217048645019531 0.0898109748959541321 255 166 254 235 21
0.922988474369049072 3.32009291648864746 0.119617640972137451 255 166 254 235 21
0.909189283847808838 3.34972071647644043 0.093891635537147522 255 166 254 235 21
1.11987471580505371 2.84382486343383789 0.315594524145126343 255 166 254 235 21
1.12937474250793457 2.81795072555541992 0.332808047533035278 255 166 254 235 21
1.13818204402923584 2.79581356048583984 0.367072045803070068 255 166 254 235 21
0.947149753570556641 3.36361169815063477 0.47209593653678894 255 166 254 235 21
0.900632798671722412 3.39888787269592285 0.510229408740997314 255 166 254 235 21
0.889226019382476807 3.41688108444213867 0.520849525928497314 255 166 254 235 21
0.933280229568481445 3.36906290054321289 0.511550843715667725 255 166 254 235 21
0.953500270843505859 3.21307849884033203 0.532185912132263184 255 166 254 235 21
0.86150437593460083 3.48982715606689453 0.190044954419136047 255 166 254 235 21
0.857950150966644287 3.47396492958068848 0.240942105650901794 255 166 254 235 21
0.850214898586273193 3.50557327270507812 0.247361645102500916 255 166 254 235 21
1.28339874744415283 2.63963723182678223 0.202347546815872192 255 166 254 235 21
1.17954444885253906 2.68555998802185059 0.515434622764587402 255 166 254 235 21
0.891773581504821777 3.39586114883422852 0.074710845947265625 255 166 254 235 21
0.94234544038772583 3.37711191177368164 0.144932553172111511 255 166 254 235 21
0.897761285305023193 3.38758754730224609 0.0899299979209899902 255 166 254 235 21
0.879936754703521729 3.41991281509399414 0.0926211550831794739 255 166 254 235 21
0.946712315082550049 3.25719356536865234 0.0733447521924972534 255 166 254 235 21
1.21821439266204834 2.71892476081848145 0.19160635769367218 255 166 254 235 21
1.09218180179595947 3.09059500694274902 0.359027236700057983 255 166 254 235 21
1.08938014507293701 3.05895471572875977 0.425362110137939453 255 166 254 235 21
1.0756690502166748 3.11547613143920898 0.420641869306564331 255 166 254 235 21
0.95709526538848877 3.31110787391662598 0.425049453973770142 255 166 254 235 21
0.951937317848205566 3.32336902618408203 0.462113082408905029 255 166 254 235 21
0.946724176406860352 3.33130311965942383 0.393958956003189087 255 166 254 235 21
1.20085620880126953 2.69913291931152344 0.369353443384170532 255 166 254 235 21
1.21637916564941406 2.65481758117675781 0.463505774736404419 255 166 254 235 21
1.22069823741912842 2.66153120994567871 0.423026889562606812 255 166 254 235 21
1.25218760967254639 2.64099383354187012 0.431462705135345459 255 166 254 235 21
1.1660386323928833 2.74984622001647949 0.377108752727508545 255 166 254 235 21
1.15443074703216553 2.75608181953430176 0.455118775367736816 255 166 254 235 21
1.14069974422454834 2.78154706954956055 0.41475871205329895 255 166 254 235 21
1.27701961994171143 2.61668896675109863 0.170966237783432007 255 166 254 235 21
1.22657787799835205 2.55676436424255371 0.114175610244274139 255 166 254 235 21
1.2582085132598877 2.59445548057556152 0.10881149023771286 255 166 254 235 21
0.909873306751251221 3.31817436218261719 0.0745748057961463928 255 166 254 235 21
1.06206285953521729 3.15660786628723145 0.257613509893417358 255 166 254 235 21
1.08630502223968506 3.12651658058166504 0.284116744995117188 255 166 254 235 21
1.02015447616577148 3.18227863311767578 0.26400110125541687 255 166 254 235 21
0.890920102596282959 3.44314146041870117 0.202921658754348755 255 166 254 235 21
0.853000879287719727 3.48718476295471191 0.509226679801940918 255 166 254 235 21
0.876529037952423096 3.43852877616882324 0.545836746692657471 255 166 254 235 21
0.815168559551239014 3.5157020092010498 0.48064914345741272 255 166 254 235 21
1.17363977432250977 2.77476835250854492 0.262202322483062744 255 166 254 235 21
1.17622983455657959 2.75394010543823242 0.30431443452835083 255 166 254 235 21
1.20034992694854736 2.72960591316223145 0.258201479911804199 255 166 254 235 21
1.10492050647735596 2.96417641639709473 0.13170015811920166 255 166 254 235 21
1.07729852199554443 3.00172662734985352 0.0854159966111183167 255 166 254 235 21
1.0995948314666748 3.00960493087768555 0.120677165687084198 255 166 254 235 21
1.01686131954193115 3.14497709274291992 0.526942193508148193 255 166 254 235 21
0.980266928672790527 3.16887974739074707 0.497109115123748779 255 166 254 235 21
0.965257644653320312 3.18787145614624023 0.50299382209777832 255 166 254 235 21
1.104103684425354 2.99785494804382324 0.139606162905693054 255 166 254 235 21
1.09971880912780762 2.98186707496643066 0.175537914037704468 255 166 254 235 21
1.10243546962738037 3.01356744766235352 0.208833843469619751 255 166 254 235 21
1.0677344799041748 3.10675501823425293 0.0782928615808486938 255 166 254 235 21
1.10578620433807373 2.80170822143554688 0.552555561065673828 255 166 254 235 21
0.959447860717773438 3.22520685195922852 0.462613195180892944 255 166 254 235 21
0.954054951667785645 3.27071070671081543 0.539668619632720947 255 166 254 235 21
0.961799263954162598 3.29084324836730957 0.47562110424041748 255 166 254 235 21
0.954229474067687988 3.22334909439086914 0.489066809415817261 255 166 254 235 21
1.23849892616271973 2.63773989677429199 0.492543131113052368 255 166 254 235 21
1.20003271102905273 2.65571975708007812 0.522011518478393555 255 166 254 235 21
1.20946145057678223 2.63627982139587402 0.569020748138427734 255 166 254 235 21
0.951791584491729736 3.33770465850830078 0.288017451763153076 255 166 254 235 21
1.08514928817749023 3.05336880683898926 0.513268649578094482 255 166 254 235 21
1.07554793357849121 2.99640274047851562 0.519065201282501221 255 166 254 235 21
1.07359790802001953 2.95063233375549316 0.494005143642425537 255 166 254 235 21
1.27698111534118652 2.64103245735168457 0.286328017711639404 255 166 254 235 21
1.23048925399780273 2.55421853065490723 0.170645251870155334 255 166 254 235 21
1.27005887031555176 2.60849642753601074 0.23013712465763092 255 166 254 235 21
1.10371541976928711 2.84061670303344727 0.0792612060904502869 255 166 254 235 21
0.94584047794342041 3.3201601505279541 0.50745081901550293 255 166 254 235 21
1.10882091522216797 3.05124974250793457 0.193749994039535522 255 166 254 235 21
1.1093522310256958 3.0967869758605957 0.212176799774169922 255 166 254 235 21
1.10666763782501221 3.03827667236328125 0.221286535263061523 255 166 254 235 21
1.10236430168151855 2.88567686080932617 0.278970330953598022 255 166 254 235 21
0.984574556350708008 3.21021795272827148 0.323767542839050293 255 166 254 235 21
0.982605695724487305 3.22983813285827637 0.317986428737640381 255 166 254 235 21
0.973755300045013428 3.2875514030456543 0.384972214698791504 255 166 254 235 21
0.975602805614471436 3.27539920806884766 0.356012105941772461 255 166 254 235 21
1.09549009799957275 2.93077373504638672 0.276890724897384644 255 166 254 235 21
1.08713304996490479 2.94948410987854004 0.330931276082992554 255 166 254 235 21
1.0856928825378418 2.92871618270874023 0.37544173002243042 255 166 254 235 21
1.09444701671600342 2.90765166282653809 0.323851555585861206 255 166 254 235 21
1.10039138793945312 2.82708072662353516 0.47948610782623291 255 166 254 235 21
1.09463715553283691 2.85483956336975098 0.414513617753982544 255 166 254 235 21
1.1508939266204834 2.81220579147338867 0.230432942509651184 255 166 254 235 21
1.13833606243133545 2.84088993072509766 0.188682049512863159 255 166 254 235 21
1.12249279022216797 2.87337589263916016 0.188848003745079041 255 166 254 235 21
1.13475573062896729 2.83545660972595215 0.233724594116210938 255 166 254 235 21
1.17357587814331055 2.79352402687072754 0.186368286609649658 255 166 254 235 21
1.00540304183959961 3.19545984268188477 0.225233614444732666 255 166 254 235 21
0.995400190353393555 3.22605681419372559 0.206786379218101501 255 166 254 235 21
0.946281492710113525 3.33108663558959961 0.177004694938659668 255 166 254 235 21
0.930390834808349609 3.33726739883422852 0.148167848587036133 255 166 254 235 21
0.939868807792663574 3.34872245788574219 0.178770855069160461 255 166 254 235 21
1.18689954280853271 2.7281036376953125 0.356358945369720459 255 166 254 235 21
1.15504741668701172 2.78624844551086426 0.337707430124282837 255 166 254 235 21
0.874170780181884766 3.45647382736206055 0.470319747924804688 255 166 254 235 21
1.1120607852935791 3.06254839897155762 0.131676793098449707 255 166 254 235 21
1.11381924152374268 3.10207366943359375 0.139617994427680969 255 166 254 235 21
1.07701635360717773 3.08281421661376953 0.0788706168532371521 255 166 254 235 21
1.10296905040740967 3.10694742202758789 0.116967722773551941 255 166 254 235 21
1.25442540645599365 2.6935274600982666 0.168589070439338684 255 166 254 235 21
1.24213945865631104 2.68692612648010254 0.225687548518180847 255 166 254 235 21
1.27626585960388184 2.65865039825439453 0.217849180102348328 255 166 254 235 21
1.27136862277984619 2.68378210067749023 0.142899647355079651 255 166 254 235 21
1.2193458080291748 2.70251345634460449 0.257303178310394287 255 166 254 235 21
1.22122597694396973 2.66462135314941406 0.385375261306762695 255 166 254 235 21
1.22532820701599121 2.67277812957763672 0.351583480834960938 255 166 254 235 21
1.19756126403808594 2.7129662036895752 0.315491318702697754 255 166 254 235 21
1.22201979160308838 2.68460798263549805 0.295231789350509644 255 166 254 235 21
1.2667766809463501 2.63957452774047852 0.358992904424667358 255 166 254 235 21
1.25418388843536377 2.64589548110961914 0.385324031114578247 255 166 254 235 21
0.897781252861022949 3.4397284984588623 0.14706285297870636 255 166 254 235 21
0.893223047256469727 3.43729496002197266 0.128186225891113281 255 166 254 235 21
0.86613774299621582 3.49207711219787598 0.140180006623268127 255 166 254 235 21
0.968218624591827393 3.30352973937988281 0.366707324981689453 255 166 254 235 21
1.1463238000869751 2.77602624893188477 0.0787751004099845886 255 166 254 235 21
0.984750747680664062 3.28066825866699219 0.2416725754737854 255 166 254 235 21
0.974746048450469971 3.30797600746154785 0.214564383029937744 255 166 254 235 21
0.991851568222045898 3.28511142730712891 0.16437627375125885 255 166 254 235 21
0.973872125148773193 3.3091890811920166 0.165326878428459167 255 166 254 235 21
1.22673547267913818 2.72330951690673828 0.151656538248062134 255 166 254 235 21
1.20210051536560059 2.76016521453857422 0.137288406491279602 255 166 254 235 21
1.22487342357635498 2.7207493782043457 0.122066214680671692 255 166 254 235 21
1.11923384666442871 2.88696527481079102 0.138991862535476685 255 166 254 235 21
1.1266864538192749 2.85980629920959473 0.12141573429107666 255 166 254 235 21
1.16180932521820068 2.81775689125061035 0.130563601851463318 255 166 254 235 21
1.13841438293457031 2.84987926483154297 0.13595929741859436 255 166 254 235 21
1.17353558540344238 2.80460906028747559 0.154531568288803101 255 166 254 235 21
1.25911116600036621 2.69409751892089844 0.128021657466888428 255 166 254 235 21
0.923042118549346924 3.40015316009521484 0.336842238903045654 255 166 254 235 21
0.946101546287536621 3.36902618408203125 0.369804203510284424 255 166 254 235 21
1.27061903476715088 2.66878294944763184 0.119942426681518555 255 166 254 235 21
1.28509926795959473 2.64079880714416504 0.129517018795013428 255 166 254 235 21
1.25374174118041992 2.62808060646057129 0.0780717208981513977 255 166 254 235 21
0.94445490837097168 3.36832261085510254 0.337603777647018433 255 166 254 235 21
1.22928166389465332 2.67525458335876465 0.0773325338959693909 255 166 254 235 21
1.20099174976348877 2.71490764617919922 0.0890726000070571899 255 166 254 235 21
0.986820220947265625 3.17836761474609375 0.0759489908814430237 255 166 254 235 21
1.07985234260559082 3.09013080596923828 0.47047889232635498 255 166 254 235 21
1.08195877075195312 3.06477475166320801 0.476550161838531494 255 166 254 235 21
1.07841193675994873 3.09325909614562988 0.515147209167480469 255 166 254 235 21
1.25805354118347168 2.65726161003112793 0.301148146390914917 255 166 254 235 21
1.25932586193084717 2.66879606246948242 0.266534596681594849 255 166 254 235 21
0.99871748685836792 3.19793605804443359 0.280086666345596313 255 166 254 235 21
1.00883769989013672 3.18402886390686035 0.320576727390289307 255 166 254 235 21
0.820767581462860107 3.50980973243713379 0.418857336044311523 255 166 254 235 21
0.833414077758789062 3.49267125129699707 0.445671141147613525 255 166 254 235 21
1.03759682178497314 3.16097331047058105 0.368690967559814453 255 166 254 235 21
0.995857417583465576 3.17911911010742188 0.374849975109100342 255 166 254 235 21
1.19607663154602051 2.75023770332336426 0.195419266819953918 255 166 254 235 21
1.17832076549530029 2.78428244590759277 0.119347624480724335 255 166 254 235 21
1.1947019100189209 2.74784231185913086 0.112562105059623718 255 166 254 235 21
1.16739368438720703 2.74110054969787598 0.0763571411371231079 255 166 254 235 21
0.96702200174331665 3.31471538543701172 0.255824238061904907 255 166 254 235 21
0.952489495277404785 3.33079171180725098 0.347134530544281006 255 166 254 235 21
0.98117297887802124 3.3002936840057373 0.29936632513999939 255 166 254 235 21
0.94849926233291626 3.33899521827697754 0.24097461998462677 255 166 254 235 21
0.92964482307434082 3.39968419075012207 0.297207444906234741 255 166 254 235 21
0.875156223773956299 3.44942092895507812 0.257567316293716431 255 166 254 235 21
0.940856635570526123 3.36932110786437988 0.253990083932876587 255 166 254 235 21
0.945660531520843506 3.37221169471740723 0.300983041524887085 255 166 254 235 21
0.922057807445526123 3.41174936294555664 0.217453658580780029 255 166 254 235 21
0.923411250114440918 3.40390324592590332 0.254759609699249268 255 166 254 235 21
1.11155104637145996 2.80867457389831543 0.491306543350219727 255 166 254 235 21
1.12203216552734375 2.80183982849121094 0.446720361709594727 255 166 254 235 21
1.22885191440582275 2.55437541007995605 0.209115192294120789 255 166 254 235 21
1.11369931697845459 2.81885671615600586 0.418357968330383301 255 166 254 235 21
0.964169740676879883 3.3024594783782959 0.143171727657318115 255 166 254 235 21
1.06377041339874268 3.15008878707885742 0.3096904456615448 255 166 254 235 21
1.04276359081268311 3.16538858413696289 0.324811100959777832 255 166 254 235 21
1.06630432605743408 3.14112710952758789 0.363733887672424316 255 166 254 235 21
1.10855329036712646 2.92264223098754883 0.137580364942550659 255 166 254 235 21
1.10630571842193604 2.91963624954223633 0.207208484411239624 255 166 254 235 21
1.10475921630859375 2.90000009536743164 0.242499992251396179 255 166 254 235 21
0.972926139831542969 3.21953296661376953 0.38590434193611145 255 166 254 235 21
0.965333223342895508 3.28466963768005371 0.42518123984336853 255 166 254 235 21
0.962069034576416016 3.24183201789855957 0.430332452058792114 255 166 254 235 21
1.10328805446624756 2.87339282035827637 0.325103253126144409 255 166 254 235 21
1.10406100749969482 2.84880948066711426 0.389803558588027954 255 166 254 235 21
1.07702815532684326 3.0144190788269043 0.479164570569992065 255 166 254 235 21
1.07578039169311523 2.97605133056640625 0.447827339172363281 255 166 254 235 21
1.08345603942871094 2.99461913108825684 0.40350717306137085 255 166 254 235 21
1.09856057167053223 3.03155231475830078 0.271934300661087036 255 166 254 235 21
1.09247815608978271 3.00027346611022949 0.294198036193847656 255 166 254 235 21
1.09897148609161377 2.98396944999694824 0.20740114152431488 255 166 254 235 21
1.22353720664978027 2.54498052597045898 0.312705785036087036 255 166 254 235 21
1.25918638706207275 2.5899198055267334 0.292610585689544678 255 166 254 235 21
1.24916172027587891 2.57681608200073242 0.346249997615814209 255 166 254 235 21
1.27238333225250244 2.61258554458618164 0.369387805461883545 255 166 254 235 21
1.26406371593475342 2.59499979019165039 0.419999986886978149 255 166 254 235 21
1.22155582904815674 2.53999996185302734 0.436249971389770508 255 166 254 235 21
1.27894914150238037 2.63098597526550293 0.24036426842212677 255 166 254 235 21
1.27776002883911133 2.61930537223815918 0.277830153703689575 255 166 254 235 21
1.15199494361877441 2.74214744567871094 0.491048246622085571 255 166 254 235 21
1.14073312282562256 2.75854659080505371 0.515900552272796631 255 166 254 235 21
1.04904615879058838 3.14535188674926758 0.417824506759643555 255 166 254 235 21
1.06305789947509766 3.12288379669189453 0.465513616800308228 255 166 254 235 21
1.05468118190765381 3.12893199920654297 0.497591465711593628 255 166 254 235 21
1.07550394535064697 2.94021844863891602 0.44049990177154541 255 166 254 235 21
1.06578266620635986 2.93944525718688965 0.533103346824645996 255 166 254 235 21
1.07001006603240967 2.89998793601989746 0.531139194965362549 255 166 254 235 21
0.956519961357116699 3.29206109046936035 0.503613889217376709 255 166 254 235 21
1.10667645931243896 3.12534809112548828 0.140663713216781616 255 166 254 235 21
1.08075308799743652 3.15645527839660645 0.149372458457946777 255 166 254 235 21
1.07825911045074463 3.15292692184448242 0.129990369081497192 255 166 254 235 21
1.09828197956085205 3.10539007186889648 0.314537674188613892 255 166 254 235 21
1.10008740425109863 3.10438632965087891 0.261634379625320435 255 166 254 235 21
1.10415184497833252 3.06891250610351562 0.26390385627746582 255 166 254 235 21
1.04526674747467041 3.13260173797607422 0.0746126696467399597 255 166 254 235 21
1.27296197414398193 2.62452483177185059 0.370413452386856079 255 166 254 235 21
1.26845192909240723 2.6100001335144043 0.428749978542327881 255 166 254 235 21
1.25949597358703613 2.61947011947631836 0.494656980037689209 255 166 254 235 21
1.10566163063049316 2.90972280502319336 0.119605623185634613 255 166 254 235 21
1.08684754371643066 2.89699530601501465 0.0860411748290061951 255 166 254 235 21
1.07834911346435547 2.96393013000488281 0.0862562507390975952 255 166 254 235 21
1.03408396244049072 3.14578437805175781 0.464414089918136597 255 166 254 235 21
0.973529398441314697 3.18795061111450195 0.474451363086700439 255 166 254 235 21
0.999710798263549805 3.17202305793762207 0.421803921461105347 255 166 254 235 21
0.973705410957336426 3.1955873966217041 0.426490247249603271 255 166 254 235 21
0.990112602710723877 3.16901659965515137 0.459849566221237183 255 166 254 235 21
1.14160287380218506 2.65158486366271973 0.880207300186157227 255 166 254 235 21
1.13206493854522705 2.68584465980529785 0.891341269016265869 255 166 254 235 21
1.15013039112091064 2.62410378456115723 0.93015056848526001 255 166 254 235 21
0.930471181869506836 3.26742672920227051 0.873739480972290039 255 166 254 235 21
0.924408614635467529 3.31087183952331543 0.907608330249786377 255 166 254 235 21
0.886379897594451904 3.34533429145812988 0.901989221572875977 255 166 254 235 21
0.907937109470367432 3.3228147029876709 0.959294795989990234 255 166 254 235 21
0.865543007850646973 3.34782719612121582 0.992366969585418701 255 166 254 235 21
0.921058952808380127 3.30162382125854492 0.946149528026580811 255 166 254 235 21
0.915226936340332031 3.32626056671142578 0.90305560827255249 255 166 254 235 21
0.870782613754272461 3.41280937194824219 1.35043931007385254 255 166 254 235 21
0.873160302639007568 3.37883591651916504 1.38395035266876221 255 166 254 235 21
0.868517875671386719 3.42272281646728516 1.39310157299041748 255 166 254 235 21
0.883715450763702393 3.36715221405029297 1.40055358409881592 255 166 254 235 21
0.871427953243255615 3.39733457565307617 1.4087975025177002 255 166 254 235 21
0.870654046535491943 3.42916297912597656 1.43254971504211426 255 166 254 235 21
0.856918632984161377 3.37907671928405762 1.4347308874130249 255 166 254 235 21
0.908787846565246582 3.25427985191345215 1.20224440097808838 255 166 254 235 21
0.911571502685546875 3.25759339332580566 1.13769197463989258 255 166 254 235 21
0.902010202407836914 3.2236173152923584 1.21257710456848145 255 166 254 235 21
0.909782171249389648 3.21516895294189453 1.13850235939025879 255 166 254 235 21
1.23031675815582275 2.55229496955871582 0.936102747917175293 255 166 254 235 21
1.09425735473632812 2.72167301177978516 1.4449688196182251 255 166 254 235 21
0.896518886089324951 3.2034461498260498 1.38495719432830811 255 166 254 235 21
0.891380131244659424 3.24192643165588379 1.4126744270324707 255 166 254 235 21
0.905045390129089355 3.23872923851013184 1.36764419078826904 255 166 254 235 21
0.903294622898101807 3.19796061515808105 1.34622526168823242 255 166 254 235 21
0.903221964836120605 3.23723888397216797 1.39151632785797119 255 166 254 235 21
0.918821454048156738 3.26209187507629395 1.38578355312347412 255 166 254 235 21
0.907767772674560547 3.26615595817565918 1.40667903423309326 255 166 254 235 21
0.850494742393493652 3.35691571235656738 1.11317682266235352 255 166 254 235 21
0.841034770011901855 3.41170263290405273 1.11335492134094238 255 166 254 235 21
0.845318496227264404 3.41492295265197754 1.07505297660827637 255 166 254 235 21
0.847332417964935303 3.37411332130432129 1.05165135860443115 255 166 254 235 21
1.02279281616210938 2.87862873077392578 1.03551483154296875 255 166 254 235 21
1.08480489253997803 2.75501561164855957 1.41059517860412598 255 166 254 235 21
1.08610844612121582 2.74008059501647949 1.37976992130279541 255 166 254 235 21
1.07780873775482178 2.79527783393859863 1.3460465669631958 255 166 254 235 21
1.08081483840942383 2.72850561141967773 1.42729556560516357 255 166 254 235 21
0.931319236755371094 3.34929299354553223 0.679049849510192871 255 166 254 235 21
0.938736796379089355 3.32929515838623047 0.633190035820007324 255 166 254 235 21
0.928802073001861572 3.35184526443481445 0.634825289249420166 255 166 254 235 21
0.938848137855529785 3.29933428764343262 0.731179952621459961 255 166 254 235 21
0.946996390819549561 3.27498149871826172 0.700481534004211426 255 166 254 235 21
0.946598291397094727 3.28226757049560547 0.666946053504943848 255 166 254 235 21
1.09242212772369385 2.80766415596008301 0.624932646751403809 255 166 254 235 21
1.06863093376159668 2.84501361846923828 0.633334755897521973 255 166 254 235 21
1.07959961891174316 2.85765957832336426 0.542591989040374756 255 166 254 235 21
0.906869947910308838 3.15609192848205566 1.35922884941101074 255 166 254 235 21
0.886846780776977539 3.19752359390258789 1.41232788562774658 255 166 254 235 21
0.911317586898803711 3.12795567512512207 1.43106293678283691 255 166 254 235 21
0.895320117473602295 3.15544986724853516 1.44431221485137939 255 166 254 235 21
0.932489335536956787 3.11489629745483398 1.39262604713439941 255 166 254 235 21
0.907150506973266602 3.14721393585205078 1.40829229354858398 255 166 254 235 21
0.862664639949798584 3.43698930740356445 0.73335731029510498 255 166 254 235 21
0.876700282096862793 3.39268183708190918 0.746298372745513916 255 166 254 235 21
1.05840837955474854 2.91686892509460449 0.629489779472351074 255 166 254 235 21
1.05447983741760254 2.95352911949157715 0.676446259021759033 255 166 254 235 21
1.05760312080383301 2.90505313873291016 0.6735076904296875 255 166 254 235 21
1.06068587303161621 2.87780189514160156 0.656991481781005859 255 166 254 235 21
1.17281460762023926 2.59531307220458984 0.942195653915405273 255 166 254 235 21
1.20008695125579834 2.62810921669006348 0.639084279537200928 255 166 254 235 21
1.24912416934967041 2.58735394477844238 0.700613081455230713 255 166 254 235 21
1.25411176681518555 2.58934426307678223 0.635604381561279297 255 166 254 235 21
1.24832391738891602 2.59888315200805664 0.672412335872650146 255 166 254 235 21
1.20444750785827637 2.62278318405151367 0.675461828708648682 255 166 254 235 21
1.23896777629852295 2.6114504337310791 0.632238805294036865 255 166 254 235 21
1.2319873571395874 2.60257887840270996 0.725506961345672607 255 166 254 235 21
1.02977406978607178 3.10309767723083496 0.745138108730316162 255 166 254 235 21
1.01998353004455566 3.10445499420166016 0.786297798156738281 255 166 254 235 21
1.0713353157043457 2.84111642837524414 0.67668837308883667 255 166 254 235 21
1.08298099040985107 2.80345010757446289 0.708145797252655029 255 166 254 235 21
1.09557116031646729 2.79616737365722656 0.671628654003143311 255 166 254 235 21
1.0569307804107666 3.04848504066467285 0.786285579204559326 255 166 254 235 21
1.04741239547729492 3.06811356544494629 0.814114809036254883 255 166 254 235 21
1.04989826679229736 3.04955601692199707 0.868462920188903809 255 166 254 235 21
1.04119706153869629 3.07652020454406738 0.860639393329620361 255 166 254 235 21
1.02283656597137451 2.87509703636169434 1.13012957572937012 255 166 254 235 21
1.01922321319580078 2.92159867286682129 1.08676242828369141 255 166 254 235 21
1.01878893375396729 2.88506865501403809 1.08827054500579834 255 166 254 235 21
1.01973462104797363 2.89081501960754395 1.07342016696929932 255 166 254 235 21
1.01397037506103516 2.91348552703857422 1.11837410926818848 255 166 254 235 21
1.1821368932723999 2.54837274551391602 1.2911914587020874 255 166 254 235 21
0.950565814971923828 3.12062191963195801 1.01090872287750244 255 166 254 235 21
1.02024173736572266 3.02136492729187012 1.21495401859283447 255 166 254 235 21
1.01031255722045898 3.02489304542541504 1.26936674118041992 255 166 254 235 21
1.01431667804718018 2.96427154541015625 1.21642279624938965 255 166 254 235 21
1.01217436790466309 2.98903846740722656 1.2462005615234375 255 166 254 235 21
1.05022001266479492 2.84435772895812988 0.870414912700653076 255 166 254 235 21
1.06118059158325195 2.83782267570495605 0.785410404205322266 255 166 254 235 21
1.08026790618896484 2.80332779884338379 0.839651048183441162 255 166 254 235 21
1.05268073081970215 2.84802699089050293 0.827027678489685059 255 166 254 235 21
1.07262778282165527 3.03236484527587891 0.618325412273406982 255 166 254 235 21
1.06498312950134277 2.98522472381591797 0.560738682746887207 255 166 254 235 21
1.1868511438369751 2.58253002166748047 0.984355628490447998 255 166 254 235 21
1.17201459407806396 2.5859222412109375 1.02142095565795898 255 166 254 235 21
1.16635680198669434 2.59849047660827637 0.966495931148529053 255 166 254 235 21
1.13357245922088623 2.64794230461120605 1.02116727828979492 255 166 254 235 21
0.898176610469818115 3.1891021728515625 1.44257521629333496 255 166 254 235 21
1.12193822860717773 2.68368792533874512 1.05105793476104736 255 166 254 235 21
1.04125833511352539 3.04326987266540527 0.946968972682952881 255 166 254 235 21
1.02953553199768066 2.93842554092407227 0.910702347755432129 255 166 254 235 21
1.0468902587890625 3.01210522651672363 0.905668675899505615 255 166 254 235 21
0.943556487560272217 3.43578696250915527 1.47049307823181152 255 166 254 235 21
0.9519195556640625 3.42776846885681152 1.4550853967666626 255 166 254 235 21
0.971306800842285156 3.3849482536315918 1.45433580875396729 255 166 254 235 21
0.916418612003326416 3.37996149063110352 1.4445948600769043 255 166 254 235 21
0.940330803394317627 3.41251039505004883 1.4476771354675293 255 166 254 235 21
0.936155915260314941 3.4451751708984375 1.45274734497070312 255 166 254 235 21
1.20527732372283936 2.5534207820892334 1.1600954532623291 255 166 254 235 21
1.05374002456665039 3.11828899383544922 0.543201923370361328 255 166 254 235 21
0.859339773654937744 3.47856640815734863 0.551595091819763184 255 166 254 235 21
0.842851877212524414 3.4899442195892334 0.602195382118225098 255 166 254 235 21
0.855101108551025391 3.46834397315979004 0.648750662803649902 255 166 254 235 21
0.982917129993438721 3.08571434020996094 1.2046351432800293 255 166 254 235 21
0.989433050155639648 3.08001589775085449 1.25138199329376221 255 166 254 235 21
0.875519096851348877 3.4478003978729248 1.38763272762298584 255 166 254 235 21
0.878538250923156738 3.44777584075927734 1.41191363334655762 255 166 254 235 21
0.880071520805358887 3.48967313766479492 1.41537249088287354 255 166 254 235 21
0.901648879051208496 3.45466804504394531 1.43249237537384033 255 166 254 235 21
0.902757644653320312 3.4981992244720459 1.43533086776733398 255 166 254 235 21
1.02783191204071045 2.87224411964416504 1.39200735092163086 255 166 254 235 21
0.975765347480773926 2.92639017105102539 1.39563262462615967 255 166 254 235 21
0.992812454700469971 2.90565752983093262 1.38897895812988281 255 166 254 235 21
1.01610791683197021 2.88326787948608398 1.42426180839538574 255 166 254 235 21
1.00727486610412598 2.90184354782104492 1.42204070091247559 255 166 254 235 21
0.97643357515335083 2.92901229858398438 1.43400382995605469 255 166 254 235 21
0.884340941905975342 3.37424921989440918 0.741814851760864258 255 166 254 235 21
0.884413778781890869 3.35996270179748535 0.811346948146820068 255 166 254 235 21
0.892328321933746338 3.38953495025634766 0.565764248371124268 255 166 254 235 21
0.841895043849945068 3.48210573196411133 0.764554023742675781 255 166 254 235 21
0.841172635555267334 3.48743510246276855 0.74425894021987915 255 166 254 235 21
0.859186768531799316 3.45011019706726074 0.776785790920257568 255 166 254 235 21
1.02418088912963867 2.9393160343170166 0.99208301305770874 255 166 254 235 21
1.04030370712280273 2.99860262870788574 0.958240807056427002 255 166 254 235 21
1.03199386596679688 2.95073103904724121 0.94762730598449707 255 166 254 235 21
1.03432321548461914 3.00770449638366699 1.02358996868133545 255 166 254 235 21
0.905484557151794434 3.15089035034179688 1.32074522972106934 255 166 254 235 21
0.887496769428253174 3.21174097061157227 1.31085121631622314 255 166 254 235 21
0.915530622005462646 3.12772655487060547 1.31291890144348145 255 166 254 235 21
0.897247195243835449 3.15918993949890137 1.29432892799377441 255 166 254 235 21
0.927946805953979492 3.12697362899780273 1.34529328346252441 255 166 254 235 21
1.12800264358520508 2.56662487983703613 1.40345275402069092 255 166 254 235 21
1.11822092533111572 2.57719945907592773 1.37649679183959961 255 166 254 235 21
1.08911633491516113 2.76299738883972168 1.12443041801452637 255 166 254 235 21
1.09575164318084717 2.74310517311096191 1.14895498752593994 255 166 254 235 21
1.1119530200958252 2.71772480010986328 1.1771237850189209 255 166 254 235 21
1.06350052356719971 2.80693435668945312 1.15736925601959229 255 166 254 235 21
1.09264838695526123 2.76165437698364258 1.18324422836303711 255 166 254 235 21
1.10560715198516846 2.70981407165527344 1.14299464225769043 255 166 254 235 21
0.895277321338653564 3.24578237533569336 1.3244020938873291 255 166 254 235 21
0.905756056308746338 3.25767064094543457 1.28639483451843262 255 166 254 235 21
0.901983320713043213 3.26601529121398926 1.33808457851409912 255 166 254 235 21
0.884444177150726318 3.27189254760742188 1.31217741966247559 255 166 254 235 21
1.16068017482757568 2.55907845497131348 1.35094547271728516 255 166 254 235 21
1.17404508590698242 2.54343986511230469 1.33194124698638916 255 166 254 235 21
1.03161883354187012 2.83916902542114258 1.44199097156524658 255 166 254 235 21
1.24845254421234131 2.57332134246826172 0.718700230121612549 255 166 254 235 21
1.24176132678985596 2.58693385124206543 0.761839807033538818 255 166 254 235 21
1.2414090633392334 2.562225341796875 0.815665006637573242 255 166 254 235 21
1.22075676918029785 2.59707474708557129 0.776020824909210205 255 166 254 235 21
1.19466757774353027 2.61398458480834961 0.745446562767028809 255 166 254 235 21
0.822783768177032471 3.46120429039001465 1.26294374465942383 255 166 254 235 21
0.809598743915557861 3.47848153114318848 1.25467145442962646 255 166 254 235 21
0.791685223579406738 3.51504683494567871 1.21715390682220459 255 166 254 235 21
0.825058281421661377 3.46480488777160645 1.21246743202209473 255 166 254 235 21
0.876354098320007324 3.34956789016723633 1.33410787582397461 255 166 254 235 21
0.887457132339477539 3.41240358352661133 1.43523633480072021 255 166 254 235 21
1.18081164360046387 2.66816139221191406 0.54585951566696167 255 166 254 235 21
1.05178403854370117 3.0059807300567627 0.791080892086029053 255 166 254 235 21
1.06045973300933838 3.02815461158752441 0.758783400058746338 255 166 254 235 21
1.05021154880523682 2.97278285026550293 0.756495058536529541 255 166 254 235 21
1.04019713401794434 3.11954283714294434 0.639385104179382324 255 166 254 235 21
1.09254062175750732 2.61209630966186523 1.42273640632629395 255 166 254 235 21
1.09691107273101807 2.63748550415039062 1.35662484169006348 255 166 254 235 21
1.11831128597259521 2.56234002113342285 1.42634105682373047 255 166 254 235 21
1.09702455997467041 2.62738132476806641 1.39293098449707031 255 166 254 235 21
1.10923266410827637 2.70765995979309082 1.24408257007598877 255 166 254 235 21
1.11722028255462646 2.67631673812866211 1.21231472492218018 255 166 254 235 21
1.09950053691864014 2.70098781585693359 1.27600717544555664 255 166 254 235 21
1.02951192855834961 3.0278632640838623 1.13558924198150635 255 166 254 235 21
1.02543330192565918 3.00769519805908203 1.1618804931640625 255 166 254 235 21
1.01953804492950439 3.04637002944946289 1.16776871681213379 255 166 254 235 21
1.01564860343933105 2.94710993766784668 1.1725773811340332 255 166 254 235 21
0.847773909568786621 3.45803427696228027 0.863605618476867676 255 166 254 235 21
0.816858410835266113 3.49456334114074707 0.938520193099975586 255 166 254 235 21
0.833504080772399902 3.4792015552520752 0.904849708080291748 255 166 254 235 21
1.02126061916351318 2.89894962310791016 1.44340622425079346 255 166 254 235 21
1.07169008255004883 3.03413844108581543 0.569804847240447998 255 166 254 235 21
1.07325029373168945 3.08826446533203125 0.548335134983062744 255 166 254 235 21
1.07248294353485107 3.06694459915161133 0.575641095638275146 255 166 254 235 21
1.06536030769348145 3.08846664428710938 0.605413734912872314 255 166 254 235 21
0.908977925777435303 3.30741024017333984 1.02378034591674805 255 166 254 235 21
0.903165936470031738 3.32268357276916504 1.00024890899658203 255 166 254 235 21
0.865407645702362061 3.3469235897064209 1.0183415412902832 255 166 254 235 21
0.834373176097869873 3.48731184005737305 0.815709233283996582 255 166 254 235 21
0.817874372005462646 3.49832773208618164 0.855987012386322021 255 166 254 235 21
0.857266902923583984 3.43594908714294434 0.82599407434463501 255 166 254 235 21
0.964137554168701172 3.15768790245056152 0.699570536613464355 255 166 254 235 21
0.990389823913574219 3.13906121253967285 0.66208803653717041 255 166 254 235 21
0.981889724731445312 3.14952993392944336 0.632961928844451904 255 166 254 235 21
0.846270918846130371 3.43804287910461426 1.07900846004486084 255 166 254 235 21
0.842291355133056641 3.44469690322875977 1.05090236663818359 255 166 254 235 21
0.827252209186553955 3.4718010425567627 1.07156729698181152 255 166 254 235 21
0.873884737491607666 3.33804178237915039 1.39501726627349854 255 166 254 235 21
0.845240175724029541 3.33997416496276855 1.4248661994934082 255 166 254 235 21
0.865277886390686035 3.35766363143920898 1.43025743961334229 255 166 254 235 21
1.07055449485778809 2.78281188011169434 1.40565967559814453 255 166 254 235 21
1.03036713600158691 2.87517809867858887 1.35870862007141113 255 166 254 235 21
1.0523451566696167 2.81855058670043945 1.37584602832794189 255 166 254 235 21
1.05300760269165039 2.82524323463439941 1.34939396381378174 255 166 254 235 21
1.0378718376159668 2.80584502220153809 1.43963515758514404 255 166 254 235 21
1.02838099002838135 2.83676242828369141 1.41739678382873535 255 166 254 235 21
0.872963488101959229 3.37290143966674805 0.84186089038848877 255 166 254 235 21
0.873498201370239258 3.37952470779418945 0.802132844924926758 255 166 254 235 21
0.860998451709747314 3.42540240287780762 0.88706207275390625 255 166 254 235 21
0.870480120182037354 3.37809300422668457 1.34007155895233154 255 166 254 235 21
0.840275704860687256 3.39661788940429688 1.31017398834228516 255 166 254 235 21
0.837414205074310303 3.45409154891967773 1.30447685718536377 255 166 254 235 21
0.831934034824371338 3.3593437671661377 1.30570387840270996 255 166 254 235 21
1.04498088359832764 2.83474230766296387 1.32280886173248291 255 166 254 235 21
0.88303297758102417 3.33474445343017578 1.36869156360626221 255 166 254 235 21
0.882017076015472412 3.33542323112487793 1.33524632453918457 255 166 254 235 21
0.906257450580596924 3.29316377639770508 1.40451812744140625 255 166 254 235 21
0.919758975505828857 3.30613064765930176 1.38018286228179932 255 166 254 235 21
0.871614158153533936 3.31505799293518066 1.41117596626281738 255 166 254 235 21
0.904385507106781006 3.28732800483703613 1.43345201015472412 255 166 254 235 21
0.927798688411712646 3.2904362678527832 1.36206638813018799 255 166 254 235 21
0.854587078094482422 3.32715344429016113 1.21862637996673584 255 166 254 235 21
0.83419334888458252 3.33936095237731934 1.27722644805908203 255 166 254 235 21
0.866260290145874023 3.31120896339416504 1.27554178237915039 255 166 254 235 21
0.848596632480621338 3.32951664924621582 1.24662470817565918 255 166 254 235 21
0.997899055480957031 2.90693330764770508 1.26285970211029053 255 166 254 235 21
0.996493875980377197 2.9172515869140625 1.34912192821502686 255 166 254 235 21
0.993895590305328369 2.91039013862609863 1.31343388557434082 255 166 254 235 21
1.04592227935791016 3.125396728515625 0.569231390953063965 255 166 254 235 21
1.07376217842102051 2.78212332725524902 1.43861448764801025 255 166 254 235 21
0.967272579669952393 3.10311508178710938 1.06706130504608154 255 166 254 235 21
1.19953489303588867 2.60191082954406738 0.813250243663787842 255 166 254 235 21
1.2305150032043457 2.58010482788085938 0.839474380016326904 255 166 254 235 21
1.24147999286651611 2.57464408874511719 0.810285806655883789 255 166 254 235 21
1.23499023914337158 2.58824872970581055 0.805162131786346436 255 166 254 235 21
1.1854785680770874 2.60098695755004883 0.840105652809143066 255 166 254 235 21
1.06754100322723389 2.90725612640380859 0.556092381477355957 255 166 254 235 21
1.06093335151672363 2.96171307563781738 0.609757184982299805 255 166 254 235 21
1.06214404106140137 2.90628314018249512 0.591724693775177002 255 166 254 235 21
1.07459044456481934 2.84881973266601562 0.601276278495788574 255 166 254 235 21
1.10386276245117188 2.59189200401306152 1.44319784641265869 255 166 254 235 21
0.859924256801605225 3.34411096572875977 1.07774364948272705 255 166 254 235 21
0.90166938304901123 3.30691647529602051 1.08574163913726807 255 166 254 235 21
0.867791593074798584 3.33594512939453125 1.10974979400634766 255 166 254 235 21
0.908273577690124512 3.29366946220397949 1.0687251091003418 255 166 254 235 21
1.01810705661773682 3.1040804386138916 0.845121860504150391 255 166 254 235 21
0.838315427303314209 3.46834659576416016 0.952015459537506104 255 166 254 235 21
0.812958717346191406 3.49520587921142578 0.980844676494598389 255 166 254 235 21
