ply
format ascii 1.0
element vertex 608
property float x
property float y
property float z
property uchar red
property uchar green
property uchar blue
property uchar alpha
property uint label
end_header
2.4275367259979248 0.815835058689117432 0.18502362072467804 1 255 254 247 9
2.43475222587585449 0.850060999393463135 0.216563835740089417 1 255 254 247 9
2.43236279487609863 0.81421208381652832 0.20955522358417511 1 255 254 247 9
2.43479537963867188 0.866885900497436523 0.1819334477186203 1 255 254 247 9
2.42445087432861328 0.791663885116577148 0.145680546760559082 1 255 254 247 9
2.4237511157989502 0.82197272777557373 0.167449384927749634 1 255 254 247 9
2.40755677223205566 0.819812119007110596 0.0893338024616241455 1 255 254 247 9
2.4324486255645752 0.864826619625091553 0.136911824345588684 1 255 254 247 9
2.41422200202941895 0.802736818790435791 0.118581958115100861 1 255 254 247 9
2.41988968849182129 0.826892971992492676 0.12775111198425293 1 255 254 247 9
2.40816688537597656 0.773003816604614258 0.107288442552089691 1 255 254 247 9
2.46526956558227539 0.881825864315032959 0.462295114994049072 1 255 254 247 9
2.46535634994506836 0.880958914756774902 0.524657666683197021 1 255 254 247 9
2.45469355583190918 0.856554150581359863 0.510825395584106445 1 255 254 247 9
2.44446730613708496 0.680336892604827881 0.0904426425695419312 1 255 254 247 9
2.43849730491638184 0.611365318298339844 0.0812297537922859192 1 255 254 247 9
2.43560647964477539 0.679592549800872803 0.0978420376777648926 1 255 254 247 9
2.41737484931945801 0.687848389148712158 0.0957241132855415344 1 255 254 247 9
2.40898799896240234 0.610356926918029785 0.0680407360196113586 1 255 254 247 9
2.46426939964294434 0.908978283405303955 0.22348371148109436 1 255 254 247 9
2.45563721656799316 0.908322334289550781 0.153840333223342896 1 255 254 247 9
2.4456789493560791 0.897774159908294678 0.212111771106719971 1 255 254 247 9
2.46623063087463379 0.909998714923858643 0.154725119471549988 1 255 254 247 9
2.44425559043884277 0.816193997859954834 0.474900990724563599 1 255 254 247 9
2.43036818504333496 0.770542919635772705 0.348016023635864258 1 255 254 247 9
2.4649956226348877 0.575724124908447266 0.0633528828620910645 1 255 254 247 9
2.45539546012878418 0.598304450511932373 0.0725566074252128601 1 255 254 247 9
2.43711948394775391 0.556856155395507812 0.0725190937519073486 1 255 254 247 9
2.40655660629272461 0.580172896385192871 0.065487392246723175 1 255 254 247 9
2.44387173652648926 0.752329707145690918 0.248287603259086609 1 255 254 247 9
2.42468762397766113 0.743220627307891846 0.261165201663970947 1 255 254 247 9
2.42590689659118652 0.762730598449707031 0.292274594306945801 1 255 254 247 9
2.44532370567321777 0.763138234615325928 0.13607536256313324 1 255 254 247 9
2.39640998840332031 0.745154976844787598 0.0873684361577033997 1 255 254 247 9
2.43968963623046875 0.742136240005493164 0.115357056260108948 1 255 254 247 9
2.42596936225891113 0.773042678833007812 0.131771817803382874 1 255 254 247 9
2.42118263244628906 0.735695481300354004 0.114514432847499847 1 255 254 247 9
2.45124554634094238 0.748793542385101318 0.108180016279220581 1 255 254 247 9
2.46479463577270508 0.737343430519104004 0.108345985412597656 1 255 254 247 9
2.46017026901245117 0.924241304397583008 0.116067789494991302 1 255 254 247 9
2.46171998977661133 0.92690664529800415 0.0890548154711723328 1 255 254 247 9
2.4385685920715332 0.907108724117279053 0.0920723900198936462 1 255 254 247 9
2.4452521800994873 0.894449889659881592 0.141504973173141479 1 255 254 247 9
2.47569084167480469 0.880802035331726074 0.627873480319976807 1 255 254 247 9
2.49755597114562988 0.88349759578704834 0.662926137447357178 1 255 254 247 9
2.50404024124145508 0.862115919589996338 0.675160050392150879 1 255 254 247 9
2.50058221817016602 0.866413474082946777 0.757421493530273438 1 255 254 247 9
2.47849798202514648 0.87362748384475708 0.744037866592407227 1 255 254 247 9
2.49258923530578613 0.849360287189483643 0.759585380554199219 1 255 254 247 9
2.48800039291381836 0.799882173538208008 0.753556430339813232 1 255 254 247 9
2.47670626640319824 0.873866438865661621 0.711687088012695312 1 255 254 247 9
2.47524452209472656 0.876578211784362793 0.682556390762329102 1 255 254 247 9
2.46507358551025391 0.867956340312957764 0.64838254451751709 1 255 254 247 9
2.4534294605255127 0.812908291816711426 0.681460142135620117 1 255 254 247 9
2.4556276798248291 0.8278847336769104 0.666741728782653809 1 255 254 247 9
2.45275735855102539 0.838226437568664551 0.541249871253967285 1 255 254 247 9
2.4641578197479248 0.871701300144195557 0.584561526775360107 1 255 254 247 9
2.44893598556518555 0.815108954906463623 0.596079528331756592 1 255 254 247 9
2.45176982879638672 0.831433296203613281 0.597408592700958252 1 255 254 247 9
2.51808071136474609 0.769060194492340088 0.760419249534606934 1 255 254 247 9
2.52855992317199707 0.725073039531707764 0.758504152297973633 1 255 254 247 9
2.44986128807067871 0.782826781272888184 0.675930440425872803 1 255 254 247 9
2.46197295188903809 0.835127770900726318 0.732652664184570312 1 255 254 247 9
2.45424199104309082 0.801823139190673828 0.719569802284240723 1 255 254 247 9
2.47058415412902832 0.810209929943084717 0.745199739933013916 1 255 254 247 9
2.50435972213745117 0.819025874137878418 0.684106111526489258 1 255 254 247 9
2.48674345016479492 0.872783780097961426 0.682779610157012939 1 255 254 247 9
2.52390813827514648 0.79934161901473999 0.674050271511077881 1 255 254 247 9
2.53057432174682617 0.864775955677032471 0.672953963279724121 1 255 254 247 9
2.45170259475708008 0.785328924655914307 0.713613331317901611 1 255 254 247 9
2.44217228889465332 0.772241592407226562 0.5570107102394104 1 255 254 247 9
2.44393134117126465 0.766063392162322998 0.600930094718933105 1 255 254 247 9
2.44256329536437988 0.75142967700958252 0.616106152534484863 1 255 254 247 9
2.56442761421203613 0.378114968538284302 0.026184888556599617 1 255 254 247 9
2.58577895164489746 0.310098946094512939 0.0279185902327299118 1 255 254 247 9
2.55781984329223633 0.275517106056213379 0.0278898682445287704 1 255 254 247 9
2.54888820648193359 0.319402307271957397 0.0293415319174528122 1 255 254 247 9
2.60126566886901855 0.266821175813674927 0.0293615683913230896 1 255 254 247 9
2.75126552581787109 0.351394534111022949 0.746766984462738037 1 255 254 247 9
3.06809115409851074 0.468740671873092651 0.760832309722900391 1 255 254 247 9
3.04927468299865723 0.56126934289932251 0.762857615947723389 1 255 254 247 9
2.61293816566467285 0.405101805925369263 0.71631169319152832 1 255 254 247 9
2.73308348655700684 0.316871762275695801 0.751252949237823486 1 255 254 247 9
3.19473505020141602 0.464420199394226074 0.745627880096435547 1 255 254 247 9
3.13260769844055176 0.455910652875900269 0.764135241508483887 1 255 254 247 9
3.16499090194702148 0.4624214768409729 0.758971095085144043 1 255 254 247 9
2.6173865795135498 0.342498958110809326 0.716262936592102051 1 255 254 247 9
2.62111282348632812 0.394247114658355713 0.705067336559295654 1 255 254 247 9
2.88687467575073242 0.396972835063934326 0.744613409042358398 1 255 254 247 9
2.90388870239257812 0.422276139259338379 0.754414558410644531 1 255 254 247 9
2.89711642265319824 0.487078070640563965 0.749128580093383789 1 255 254 247 9
2.81938934326171875 0.405748665332794189 0.746015191078186035 1 255 254 247 9
2.84625005722045898 0.464062511920928955 0.748027026653289795 1 255 254 247 9
2.88921737670898438 0.510042190551757812 0.748097538948059082 1 255 254 247 9
2.91776084899902344 0.498143553733825684 0.759216785430908203 1 255 254 247 9
2.92280006408691406 0.533744573593139648 0.754160761833190918 1 255 254 247 9
2.63334798812866211 0.519035220146179199 0.756603360176086426 1 255 254 247 9
2.62740159034729004 0.271552473306655884 0.744867920875549316 1 255 254 247 9
2.61668014526367188 0.297780990600585938 0.727382183074951172 1 255 254 247 9
2.67301106452941895 0.29201093316078186 0.755901455879211426 1 255 254 247 9
2.64449262619018555 0.303072154521942139 0.742620527744293213 1 255 254 247 9
2.67982912063598633 0.328637003898620605 0.74709022045135498 1 255 254 247 9
2.60624408721923828 0.447515100240707397 0.731573879718780518 1 255 254 247 9
2.62018752098083496 0.465006530284881592 0.748405694961547852 1 255 254 247 9
2.62106847763061523 0.402835428714752197 0.737858593463897705 1 255 254 247 9
2.98716998100280762 0.539821028709411621 0.742656588554382324 1 255 254 247 9
2.9763035774230957 0.502282679080963135 0.743912398815155029 1 255 254 247 9
2.95648789405822754 0.521285772323608398 0.754106342792510986 1 255 254 247 9
3.02135848999023438 0.547717511653900146 0.758450210094451904 1 255 254 247 9
3.03820610046386719 0.469060003757476807 0.757779538631439209 1 255 254 247 9
2.76514172554016113 0.48067060112953186 0.752701044082641602 1 255 254 247 9
2.73393535614013672 0.388116002082824707 0.746842503547668457 1 255 254 247 9
2.76098728179931641 0.403006434440612793 0.747766435146331787 1 255 254 247 9
3.33814358711242676 0.525260567665100098 0.73573833703994751 1 255 254 247 9
3.40328693389892578 0.558863997459411621 0.733062863349914551 1 255 254 247 9
2.64378023147583008 0.392765641212463379 0.745390117168426514 1 255 254 247 9
2.69658827781677246 0.496588617563247681 0.755456328392028809 1 255 254 247 9
2.84305143356323242 0.377504736185073853 0.746563553810119629 1 255 254 247 9
2.84406256675720215 0.559687495231628418 0.753133118152618408 1 255 254 247 9
2.6389317512512207 0.361703366041183472 0.741126537322998047 1 255 254 247 9
2.6739649772644043 0.39608687162399292 0.748336613178253174 1 255 254 247 9
3.14597368240356445 0.491798818111419678 0.75596928596496582 1 255 254 247 9
3.1862797737121582 0.479377776384353638 0.740462303161621094 1 255 254 247 9
3.12260651588439941 0.485442936420440674 0.760162055492401123 1 255 254 247 9
2.62081217765808105 0.354314923286437988 0.729826569557189941 1 255 254 247 9
3.28167986869812012 0.513348698616027832 0.738671541213989258 1 255 254 247 9
2.61668801307678223 0.51006770133972168 0.754603326320648193 1 255 254 247 9
2.59819650650024414 0.514782488346099854 0.74912571907043457 1 255 254 247 9
2.59630870819091797 0.470544725656509399 0.720461547374725342 1 255 254 247 9
2.98360133171081543 0.446103662252426147 0.755830764770507812 1 255 254 247 9
3.06665205955505371 0.431936800479888916 0.764350295066833496 1 255 254 247 9
3.00125455856323242 0.424986541271209717 0.744022786617279053 1 255 254 247 9
3.00198936462402344 0.456442803144454956 0.742789864540100098 1 255 254 247 9
3.24932765960693359 0.501248955726623535 0.736460089683532715 1 255 254 247 9
3.45611238479614258 0.871473014354705811 0.207004651427268982 1 255 254 247 9
3.49051499366760254 0.844868242740631104 0.421113729476928711 1 255 254 247 9
2.68551921844482422 0.934063076972961426 0.148908749222755432 1 255 254 247 9
2.66328239440917969 0.950910985469818115 0.130354836583137512 1 255 254 247 9
2.7469484806060791 0.918782055377960205 0.363952219486236572 1 255 254 247 9
2.73767590522766113 0.924482405185699463 0.339536070823669434 1 255 254 247 9
3.31835508346557617 0.856919288635253906 0.235397428274154663 1 255 254 247 9
3.2963566780090332 0.848808646202087402 0.244719788432121277 1 255 254 247 9
3.33359408378601074 0.856026291847229004 0.246149495244026184 1 255 254 247 9
3.31103157997131348 0.801401317119598389 0.252632826566696167 1 255 254 247 9
3.32841372489929199 0.816705822944641113 0.25390508770942688 1 255 254 247 9
3.28975152969360352 0.836791396141052246 0.251760929822921753 1 255 254 247 9
3.39267683029174805 0.728977560997009277 0.250172406435012817 1 255 254 247 9
3.36420369148254395 0.786518514156341553 0.251348614692687988 1 255 254 247 9
3.30216073989868164 0.59541398286819458 0.327895492315292358 1 255 254 247 9
3.33900833129882812 0.606089472770690918 0.364864110946655273 1 255 254 247 9
3.34217405319213867 0.600558578968048096 0.39466404914855957 1 255 254 247 9
3.28014469146728516 0.587078690528869629 0.363530993461608887 1 255 254 247 9
2.84887075424194336 0.737502336502075195 0.29589611291885376 1 255 254 247 9
2.86487650871276855 0.754030406475067139 0.386690974235534668 1 255 254 247 9
2.86541867256164551 0.724188446998596191 0.343858659267425537 1 255 254 247 9
2.84376335144042969 0.764521479606628418 0.35537680983543396 1 255 254 247 9
2.88902044296264648 0.601827323436737061 0.173808619379997253 1 255 254 247 9
2.89233684539794922 0.635612607002258301 0.178975656628608704 1 255 254 247 9
2.93857049942016602 0.625984549522399902 0.160732299089431763 1 255 254 247 9
3.42914748191833496 0.632509112358093262 0.378550499677658081 1 255 254 247 9
2.9570462703704834 0.616445481777191162 0.173491597175598145 1 255 254 247 9
2.96599650382995605 0.634669959545135498 0.173365041613578796 1 255 254 247 9
3.25575041770935059 0.841778039932250977 0.24561735987663269 1 255 254 247 9
3.19052386283874512 0.813334405422210693 0.255700469017028809 1 255 254 247 9
3.4192664623260498 1.17491650581359863 0.573604166507720947 1 255 254 247 9
3.3705589771270752 0.870985031127929688 0.235658705234527588 1 255 254 247 9
3.42110037803649902 0.892000496387481689 0.240055680274963379 1 255 254 247 9
2.61996889114379883 0.969464957714080811 0.0756297558546066284 1 255 254 247 9
2.59022092819213867 0.965827047824859619 0.11512833833694458 1 255 254 247 9
2.6377570629119873 0.942929208278656006 0.133085727691650391 1 255 254 247 9
2.59521007537841797 0.961061358451843262 0.126360565423965454 1 255 254 247 9
3.34632182121276855 0.659719407558441162 0.24566805362701416 1 255 254 247 9
3.40135502815246582 0.647124826908111572 0.252008497714996338 1 255 254 247 9
3.4207000732421875 0.686531126499176025 0.249114111065864563 1 255 254 247 9
3.47109889984130859 0.678317546844482422 0.254123300313949585 1 255 254 247 9
2.63563632965087891 0.928336799144744873 0.144489392638206482 1 255 254 247 9
2.64764046669006348 0.921644866466522217 0.17325909435749054 1 255 254 247 9
2.61960363388061523 0.896260738372802734 0.230117276310920715 1 255 254 247 9
2.63187193870544434 0.906753659248352051 0.207800567150115967 1 255 254 247 9
2.56950831413269043 0.896187245845794678 0.162595838308334351 1 255 254 247 9
2.57364296913146973 0.892657935619354248 0.209589242935180664 1 255 254 247 9
3.19008612632751465 0.571556150913238525 0.361452937126159668 1 255 254 247 9
3.23334741592407227 0.565782308578491211 0.353598803281784058 1 255 254 247 9
3.25532054901123047 0.578063368797302246 0.392576128244400024 1 255 254 247 9
3.27836465835571289 0.58784639835357666 0.39672282338142395 1 255 254 247 9
3.25700783729553223 0.580163538455963135 0.319524079561233521 1 255 254 247 9
2.67992782592773438 0.989047467708587646 0.0737467706203460693 1 255 254 247 9
2.73051142692565918 1.01121747493743896 0.0822110995650291443 1 255 254 247 9
3.45117950439453125 0.981475114822387695 0.49129563570022583 1 255 254 247 9
3.45546054840087891 0.914350748062133789 0.24886728823184967 1 255 254 247 9
3.45833611488342285 0.925328910350799561 0.289587110280990601 1 255 254 247 9
3.46270036697387695 0.888422071933746338 0.263939827680587769 1 255 254 247 9
2.9405055046081543 0.602603435516357422 0.167641773819923401 1 255 254 247 9
3.44572544097900391 0.623205602169036865 0.438234597444534302 1 255 254 247 9
3.47767448425292969 0.899722754955291748 0.406125158071517944 1 255 254 247 9
3.46145367622375488 0.946030914783477783 0.440026372671127319 1 255 254 247 9
3.46477723121643066 0.927542209625244141 0.472307562828063965 1 255 254 247 9
3.47796869277954102 0.881466507911682129 0.440224051475524902 1 255 254 247 9
3.31782388687133789 0.630657732486724854 0.254848003387451172 1 255 254 247 9
3.34390544891357422 0.608700692653656006 0.335403889417648315 1 255 254 247 9
3.26515030860900879 0.598013341426849365 0.269160717725753784 1 255 254 247 9
3.34143328666687012 0.626670360565185547 0.25484168529510498 1 255 254 247 9
3.3279576301574707 0.613156616687774658 0.270959913730621338 1 255 254 247 9
3.30268168449401855 0.612288534641265869 0.264417052268981934 1 255 254 247 9
3.11767292022705078 0.763621866703033447 0.223675668239593506 1 255 254 247 9
3.13839626312255859 0.763646900653839111 0.216587096452713013 1 255 254 247 9
3.16284799575805664 0.776304244995117188 0.21864636242389679 1 255 254 247 9
2.9794621467590332 0.717180967330932617 0.234953463077545166 1 255 254 247 9
3.05288267135620117 0.750271499156951904 0.233798190951347351 1 255 254 247 9
3.33411216735839844 0.721453845500946045 0.247342228889465332 1 255 254 247 9
3.28202366828918457 0.733959794044494629 0.256308436393737793 1 255 254 247 9
2.73432660102844238 0.984130740165710449 0.325568974018096924 1 255 254 247 9
2.73711252212524414 0.971779167652130127 0.362436473369598389 1 255 254 247 9
3.20607376098632812 0.819841265678405762 0.242494508624076843 1 255 254 247 9
3.27440023422241211 0.842114090919494629 0.232048690319061279 1 255 254 247 9
3.50473642349243164 1.14906013011932373 0.434763878583908081 1 255 254 247 9
3.47204947471618652 1.1948467493057251 0.455562382936477661 1 255 254 247 9
3.4765019416809082 1.18971848487854004 0.410356730222702026 1 255 254 247 9
3.49122118949890137 1.17087841033935547 0.410158663988113403 1 255 254 247 9
2.7334444522857666 0.983980536460876465 0.17090076208114624 1 255 254 247 9
2.7239539623260498 0.977086186408996582 0.229127570986747742 1 255 254 247 9
2.73981738090515137 0.992408037185668945 0.228391766548156738 1 255 254 247 9
3.25062847137451172 0.828007996082305908 0.259333640336990356 1 255 254 247 9
3.23241877555847168 0.775345683097839355 0.261590570211410522 1 255 254 247 9
2.90190529823303223 0.677937328815460205 0.347966969013214111 1 255 254 247 9
2.88454961776733398 0.726156711578369141 0.372726231813430786 1 255 254 247 9
2.92427945137023926 0.623782098293304443 0.382425367832183838 1 255 254 247 9
2.89663600921630859 0.666214883327484131 0.385822445154190063 1 255 254 247 9
2.56788992881774902 0.952345073223114014 0.0779210478067398071 1 255 254 247 9
2.54360103607177734 0.946766972541809082 0.113679341971874237 1 255 254 247 9
2.5176236629486084 0.92958521842956543 0.125789523124694824 1 255 254 247 9
3.08598542213439941 0.743929564952850342 0.217805013060569763 1 255 254 247 9
2.9515986442565918 0.659595072269439697 0.183781370520591736 1 255 254 247 9
2.99247121810913086 0.652817785739898682 0.177990272641181946 1 255 254 247 9
2.98060417175292969 0.693648576736450195 0.206171751022338867 1 255 254 247 9
2.9902503490447998 0.708748042583465576 0.216507449746131897 1 255 254 247 9
2.80344486236572266 0.807701826095581055 0.247477784752845764 1 255 254 247 9
2.81010127067565918 0.832162022590637207 0.272668838500976562 1 255 254 247 9
3.4826812744140625 0.649137020111083984 0.299888968467712402 1 255 254 247 9
3.51446962356567383 0.697148323059082031 0.257940620183944702 1 255 254 247 9
3.46457338333129883 0.722128093242645264 0.251859664916992188 1 255 254 247 9
3.45625543594360352 0.649542868137359619 0.275375694036483765 1 255 254 247 9
3.4335634708404541 0.641820967197418213 0.268931865692138672 1 255 254 247 9
3.4790961742401123 0.66144716739654541 0.264324843883514404 1 255 254 247 9
3.45942234992980957 0.901393413543701172 0.217256858944892883 1 255 254 247 9
2.83137011528015137 0.801846742630004883 0.391219109296798706 1 255 254 247 9
2.72820639610290527 0.974545419216156006 0.27620929479598999 1 255 254 247 9
2.73871064186096191 0.988344192504882812 0.271683216094970703 1 255 254 247 9
2.72880315780639648 0.950769364833831787 0.284401237964630127 1 255 254 247 9
2.8789670467376709 0.720393896102905273 0.473354101181030273 1 255 254 247 9
2.87237238883972168 0.73350059986114502 0.40395885705947876 1 255 254 247 9
2.8795628547668457 0.707543611526489258 0.418318241834640503 1 255 254 247 9
2.84381508827209473 0.69320911169052124 0.199456155300140381 1 255 254 247 9
2.87125492095947266 0.625024199485778809 0.176842972636222839 1 255 254 247 9
2.86146211624145508 0.668334066867828369 0.199697360396385193 1 255 254 247 9
3.47136020660400391 0.859238386154174805 0.266673088073730469 1 255 254 247 9
3.48960566520690918 0.80627286434173584 0.269638925790786743 1 255 254 247 9
3.46785712242126465 0.893836140632629395 0.283596724271774292 1 255 254 247 9
2.73225688934326172 0.996294736862182617 0.146518036723136902 1 255 254 247 9
2.73251843452453613 1.01011490821838379 0.123417571187019348 1 255 254 247 9
2.71617746353149414 1.00285780429840088 0.127689212560653687 1 255 254 247 9
2.69859075546264648 0.997021734714508057 0.111337721347808838 1 255 254 247 9
2.66204714775085449 0.979965090751647949 0.0961853116750717163 1 255 254 247 9
2.6940310001373291 0.950889706611633301 0.137506440281867981 1 255 254 247 9
2.70700788497924805 0.948986589908599854 0.149085924029350281 1 255 254 247 9
2.66058540344238281 0.977713346481323242 0.115118563175201416 1 255 254 247 9
2.6943061351776123 0.982687413692474365 0.125489041209220886 1 255 254 247 9
2.90182709693908691 0.651714324951171875 0.416847050189971924 1 255 254 247 9
2.89678144454956055 0.669133186340332031 0.464170396327972412 1 255 254 247 9
3.49509119987487793 1.16981303691864014 0.363228768110275269 1 255 254 247 9
3.50478434562683105 1.15436959266662598 0.347213774919509888 1 255 254 247 9
3.48003292083740234 1.19142329692840576 0.315260916948318481 1 255 254 247 9
3.00207400321960449 0.661897122859954834 0.292440295219421387 1 255 254 247 9
2.98281311988830566 0.660502851009368896 0.258016377687454224 1 255 254 247 9
2.97466564178466797 0.637044131755828857 0.266938120126724243 1 255 254 247 9
2.99506974220275879 0.647442936897277832 0.274627178907394409 1 255 254 247 9
3.2833564281463623 0.80852198600769043 0.205321803689002991 1 255 254 247 9
3.42931437492370605 0.850186824798583984 0.20633263885974884 1 255 254 247 9
3.41193222999572754 0.858069419860839844 0.214561864733695984 1 255 254 247 9
3.42079854011535645 0.878420412540435791 0.226050496101379395 1 255 254 247 9
2.75662565231323242 0.898174703121185303 0.433718740940093994 1 255 254 247 9
2.75036954879760742 0.942207872867584229 0.455833584070205688 1 255 254 247 9
2.78494143486022949 0.94628143310546875 0.464404463768005371 1 255 254 247 9
2.75072455406188965 0.921514987945556641 0.424460738897323608 1 255 254 247 9
2.78603124618530273 0.968630850315093994 0.51905137300491333 1 255 254 247 9
2.75340604782104492 0.972887396812438965 0.465682119131088257 1 255 254 247 9
2.77135324478149414 0.974048137664794922 0.509318292140960693 1 255 254 247 9
2.76103711128234863 0.966382384300231934 0.566636800765991211 1 255 254 247 9
2.75747251510620117 0.905691683292388916 0.480440229177474976 1 255 254 247 9
2.75312423706054688 0.947219669818878174 0.510463356971740723 1 255 254 247 9
2.7596886157989502 0.914081037044525146 0.533906042575836182 1 255 254 247 9
3.1828911304473877 0.813227713108062744 0.24113832414150238 1 255 254 247 9
3.13730216026306152 0.786918878555297852 0.244842082262039185 1 255 254 247 9
3.37175250053405762 0.62826991081237793 0.264833807945251465 1 255 254 247 9
3.38103890419006348 0.625951230525970459 0.303691357374191284 1 255 254 247 9
3.3476417064666748 0.612584292888641357 0.278677999973297119 1 255 254 247 9
3.40965843200683594 0.625165581703186035 0.322614073753356934 1 255 254 247 9
3.11951375007629395 0.736818492412567139 0.265880584716796875 1 255 254 247 9
3.14176607131958008 0.75873863697052002 0.257552415132522583 1 255 254 247 9
3.15778732299804688 0.791179656982421875 0.254924893379211426 1 255 254 247 9
3.18836545944213867 0.795085608959197998 0.262130528688430786 1 255 254 247 9
3.18741893768310547 0.750142157077789307 0.262010842561721802 1 255 254 247 9
3.42022919654846191 0.625617325305938721 0.412782400846481323 1 255 254 247 9
3.38916587829589844 0.611037671566009521 0.44333261251449585 1 255 254 247 9
3.41692972183227539 0.616809487342834473 0.44272536039352417 1 255 254 247 9
3.1884911060333252 0.606141626834869385 0.263296544551849365 1 255 254 247 9
3.20416116714477539 0.566272735595703125 0.332902878522872925 1 255 254 247 9
2.93162226676940918 0.718776226043701172 0.235293015837669373 1 255 254 247 9
3.25411796569824219 0.678121805191040039 0.25726434588432312 1 255 254 247 9
3.27615451812744141 0.627836942672729492 0.256652265787124634 1 255 254 247 9
3.30414247512817383 0.664131581783294678 0.250745683908462524 1 255 254 247 9
3.48521876335144043 1.17915070056915283 0.465621292591094971 1 255 254 247 9
3.4821012020111084 1.1773144006729126 0.522372841835021973 1 255 254 247 9
2.82906985282897949 0.864353418350219727 0.504221856594085693 1 255 254 247 9
2.84590339660644531 0.814572036266326904 0.521292209625244141 1 255 254 247 9
2.83504867553710938 0.83529055118560791 0.480250358581542969 1 255 254 247 9
3.37761044502258301 0.871888220310211182 0.246274217963218689 1 255 254 247 9
3.42487549781799316 0.872950077056884766 0.255241483449935913 1 255 254 247 9
3.4061439037322998 0.820936381816864014 0.256242692470550537 1 255 254 247 9
3.35230541229248047 0.83607560396194458 0.251903682947158813 1 255 254 247 9
3.44591856002807617 0.822441220283508301 0.255805134773254395 1 255 254 247 9
2.94373178482055664 0.605428755283355713 0.276845365762710571 1 255 254 247 9
2.94470810890197754 0.633174300193786621 0.264241814613342285 1 255 254 247 9
2.93022561073303223 0.600234866142272949 0.296561241149902344 1 255 254 247 9
2.88522982597351074 0.675473034381866455 0.208327308297157288 1 255 254 247 9
2.91608238220214844 0.678802788257598877 0.201851010322570801 1 255 254 247 9
2.8994286060333252 0.727995932102203369 0.226692527532577515 1 255 254 247 9
2.87997889518737793 0.705638289451599121 0.223753482103347778 1 255 254 247 9
2.91876482963562012 0.653727173805236816 0.180354475975036621 1 255 254 247 9
3.49823498725891113 0.819161295890808105 0.348471403121948242 1 255 254 247 9
3.48686385154724121 0.860960483551025391 0.384892463684082031 1 255 254 247 9
3.35919547080993652 0.857825636863708496 0.225075408816337585 1 255 254 247 9
3.32783961296081543 0.842908024787902832 0.218679711222648621 1 255 254 247 9
3.27726888656616211 0.820123016834259033 0.214544326066970825 1 255 254 247 9
2.8847053050994873 0.766714036464691162 0.253440171480178833 1 255 254 247 9
2.87247371673583984 0.729778528213500977 0.261693090200424194 1 255 254 247 9
2.9111478328704834 0.733834743499755859 0.25193178653717041 1 255 254 247 9
2.73475408554077148 0.889524936676025391 0.276700228452682495 1 255 254 247 9
2.73503875732421875 0.866937935352325439 0.256136089563369751 1 255 254 247 9
3.03839969635009766 0.686734139919281006 0.277889043092727661 1 255 254 247 9
3.01902127265930176 0.674326300621032715 0.260376900434494019 1 255 254 247 9
2.93108749389648438 0.602175652980804443 0.357695251703262329 1 255 254 247 9
2.846710205078125 0.804622411727905273 0.420949786901473999 1 255 254 247 9
2.8332819938659668 0.848873138427734375 0.446194082498550415 1 255 254 247 9
2.81062102317810059 0.858537852764129639 0.415729552507400513 1 255 254 247 9
2.84629940986633301 0.811443626880645752 0.458022087812423706 1 255 254 247 9
2.81424927711486816 0.836296558380126953 0.398824930191040039 1 255 254 247 9
2.81559371948242188 0.779123485088348389 0.236066937446594238 1 255 254 247 9
2.83644652366638184 0.788825273513793945 0.261175632476806641 1 255 254 247 9
2.85993003845214844 0.758107483386993408 0.252810806035995483 1 255 254 247 9
2.8395838737487793 0.75183403491973877 0.305917650461196899 1 255 254 247 9
3.49979948997497559 0.81266552209854126 0.404129505157470703 1 255 254 247 9
3.48143577575683594 0.647125065326690674 0.381672918796539307 1 255 254 247 9
3.4504551887512207 0.637975752353668213 0.338330388069152832 1 255 254 247 9
2.76770186424255371 0.972113668918609619 0.472202897071838379 1 255 254 247 9
2.74404430389404297 0.967927217483520508 0.406710535287857056 1 255 254 247 9
3.43978667259216309 0.912534713745117188 0.245615765452384949 1 255 254 247 9
3.44757246971130371 0.9148293137550354 0.236027330160140991 1 255 254 247 9
2.64874553680419922 0.911428272724151611 0.221090748906135559 1 255 254 247 9
2.69402050971984863 0.925232410430908203 0.212822511792182922 1 255 254 247 9
2.70816183090209961 0.937476694583892822 0.20189213752746582 1 255 254 247 9
2.71130728721618652 0.951746881008148193 0.182364389300346375 1 255 254 247 9
3.37787151336669922 0.610526978969573975 0.398468226194381714 1 255 254 247 9
3.39507174491882324 0.617978572845458984 0.358721017837524414 1 255 254 247 9
3.50324630737304688 0.747743666172027588 0.253456950187683105 1 255 254 247 9
3.45503091812133789 0.766936719417572021 0.254529356956481934 1 255 254 247 9
3.47930479049682617 0.7888946533203125 0.254863858222961426 1 255 254 247 9
3.49622321128845215 0.776932418346405029 0.260063618421554565 1 255 254 247 9
3.2191472053527832 0.590140461921691895 0.261451184749603271 1 255 254 247 9
3.17822623252868652 0.582291007041931152 0.299485087394714355 1 255 254 247 9
3.21605539321899414 0.571339845657348633 0.303868860006332397 1 255 254 247 9
3.24276137351989746 0.58095395565032959 0.28118818998336792 1 255 254 247 9
2.72740840911865234 0.965372562408447266 0.325074344873428345 1 255 254 247 9
2.71099376678466797 0.93717658519744873 0.233068183064460754 1 255 254 247 9
2.72527360916137695 0.915348529815673828 0.258534818887710571 1 255 254 247 9
2.7335054874420166 0.910836100578308105 0.301246196031570435 1 255 254 247 9
3.22283101081848145 0.566664397716522217 0.422311931848526001 1 255 254 247 9
3.28102493286132812 0.576263070106506348 0.422084331512451172 1 255 254 247 9
3.19831633567810059 0.569189190864562988 0.41866070032119751 1 255 254 247 9
3.20901823043823242 0.790197670459747314 0.215245887637138367 1 255 254 247 9
2.86605548858642578 0.762116074562072754 0.458271175622940063 1 255 254 247 9
2.86501765251159668 0.767300724983215332 0.502223551273345947 1 255 254 247 9
3.47009682655334473 1.19585084915161133 0.352882802486419678 1 255 254 247 9
3.47980332374572754 1.19281351566314697 0.389082878828048706 1 255 254 247 9
3.13476920127868652 0.707332849502563477 0.267315775156021118 1 255 254 247 9
3.2012639045715332 0.676461517810821533 0.259073406457901001 1 255 254 247 9
3.14822196960449219 0.719504177570343018 0.257948696613311768 1 255 254 247 9
3.17285704612731934 0.671246707439422607 0.267134547233581543 1 255 254 247 9
3.07533645629882812 0.739377677440643311 0.260981887578964233 1 255 254 247 9
3.06447243690490723 0.761748313903808594 0.245341882109642029 1 255 254 247 9
3.02774548530578613 0.731353461742401123 0.248580500483512878 1 255 254 247 9
3.11178851127624512 0.760014951229095459 0.262546807527542114 1 255 254 247 9
2.82879209518432617 0.890945911407470703 0.474226802587509155 1 255 254 247 9
2.83154988288879395 0.886873781681060791 0.512961447238922119 1 255 254 247 9
2.78530454635620117 0.963079214096069336 0.560333549976348877 1 255 254 247 9
2.82246184349060059 0.906370222568511963 0.52531057596206665 1 255 254 247 9
2.80565738677978516 0.939628422260284424 0.502014338970184326 1 255 254 247 9
2.91592693328857422 0.612045943737030029 0.412283033132553101 1 255 254 247 9
2.90888571739196777 0.629759728908538818 0.438371658325195312 1 255 254 247 9
3.3175957202911377 0.596699357032775879 0.424066543579101562 1 255 254 247 9
3.35120940208435059 0.603233516216278076 0.445001989603042603 1 255 254 247 9
2.81333374977111816 0.887082755565643311 0.442681372165679932 1 255 254 247 9
2.8262944221496582 0.880485951900482178 0.459362000226974487 1 255 254 247 9
2.80413627624511719 0.907290399074554443 0.449748784303665161 1 255 254 247 9
2.86363959312438965 0.708404123783111572 0.293400973081588745 1 255 254 247 9
2.85694670677185059 0.704785168170928955 0.267671108245849609 1 255 254 247 9
2.89701652526855469 0.640667974948883057 0.285745888948440552 1 255 254 247 9
2.96885824203491211 0.710352718830108643 0.246614918112754822 1 255 254 247 9
2.8821418285369873 0.684225559234619141 0.263847976922988892 1 255 254 247 9
2.9160158634185791 0.638915657997131348 0.314591199159622192 1 255 254 247 9
2.87884259223937988 0.677413880825042725 0.311306953430175781 1 255 254 247 9
2.92017936706542969 0.676990389823913574 0.259272783994674683 1 255 254 247 9
2.91077733039855957 0.629933059215545654 0.270719408988952637 1 255 254 247 9
2.9532158374786377 0.692861080169677734 0.254556924104690552 1 255 254 247 9
2.88797760009765625 0.699808657169342041 0.254086226224899292 1 255 254 247 9
2.93045282363891602 0.7083168625831604 0.247146114706993103 1 255 254 247 9
2.58603644371032715 0.906777799129486084 0.146043181419372559 1 255 254 247 9
2.55744671821594238 0.913031399250030518 0.135749831795692444 1 255 254 247 9
2.81389069557189941 0.773386240005493164 0.215901806950569153 1 255 254 247 9
2.82964396476745605 0.741406798362731934 0.215767785906791687 1 255 254 247 9
2.80465984344482422 0.782193362712860107 0.219376325607299805 1 255 254 247 9
2.8520045280456543 0.736033737659454346 0.231107458472251892 1 255 254 247 9
3.48514294624328613 0.637844383716583252 0.424919664859771729 1 255 254 247 9
2.97014164924621582 1.02045631408691406 0.655285358428955078 1 255 254 247 9
3.00932407379150391 1.02924203872680664 0.654921412467956543 1 255 254 247 9
2.95595598220825195 1.01412868499755859 0.644181489944458008 1 255 254 247 9
2.98230600357055664 1.0197979211807251 0.643151760101318359 1 255 254 247 9
2.99002623558044434 0.961479544639587402 0.673383355140686035 1 255 254 247 9
2.9776768684387207 0.983544111251831055 0.670207977294921875 1 255 254 247 9
3.01663708686828613 0.97799527645111084 0.675371885299682617 1 255 254 247 9
2.7367548942565918 0.553022205829620361 0.757200896739959717 1 255 254 247 9
2.61673808097839355 0.574872732162475586 0.759458363056182861 1 255 254 247 9
3.11549758911132812 0.545251965522766113 0.761773407459259033 1 255 254 247 9
3.30098557472229004 1.10932254791259766 0.756060302257537842 1 255 254 247 9
3.33732485771179199 1.0961683988571167 0.754920363426208496 1 255 254 247 9
3.49992561340332031 1.15183377265930176 0.687521934509277344 1 255 254 247 9
3.4817497730255127 1.17560577392578125 0.685862898826599121 1 255 254 247 9
3.42650604248046875 1.16439199447631836 0.714811921119689941 1 255 254 247 9
3.46128344535827637 1.18211007118225098 0.687475025653839111 1 255 254 247 9
3.42297744750976562 1.17567574977874756 0.615940272808074951 1 255 254 247 9
2.94011759757995605 0.618485689163208008 0.748050391674041748 1 255 254 247 9
2.6497340202331543 0.885262846946716309 0.667273283004760742 1 255 254 247 9
2.63914942741394043 0.911784470081329346 0.664197564125061035 1 255 254 247 9
2.5667729377746582 0.674299776554107666 0.761600315570831299 1 255 254 247 9
3.06416130065917969 1.04064881801605225 0.745509147644042969 1 255 254 247 9
3.09958171844482422 1.03156459331512451 0.760445356369018555 1 255 254 247 9
2.75 0.804999947547912598 0.759157538414001465 1 255 254 247 9
2.7676999568939209 0.886175036430358887 0.758067190647125244 1 255 254 247 9
3.19186806678771973 0.85702669620513916 0.749146044254302979 1 255 254 247 9
3.25582361221313477 0.869499742984771729 0.757372796535491943 1 255 254 247 9
2.96246242523193359 0.935196578502655029 0.664227783679962158 1 255 254 247 9
2.91124844551086426 0.944283366203308105 0.676291525363922119 1 255 254 247 9
3.50414943695068359 0.858440518379211426 0.745778679847717285 1 255 254 247 9
2.8046729564666748 0.881475925445556641 0.661779820919036865 1 255 254 247 9
2.84209775924682617 0.880009651184082031 0.663383245468139648 1 255 254 247 9
2.79393839836120605 0.942737221717834473 0.667170286178588867 1 255 254 247 9
2.84111666679382324 0.958044588565826416 0.665813028812408447 1 255 254 247 9
2.87661957740783691 0.91339111328125 0.67348325252532959 1 255 254 247 9
3.34321212768554688 1.16680335998535156 0.656062781810760498 1 255 254 247 9
3.28234434127807617 1.14071989059448242 0.65497589111328125 1 255 254 247 9
3.3038334846496582 1.14650607109069824 0.662896633148193359 1 255 254 247 9
3.33152151107788086 1.14843368530273438 0.664970815181732178 1 255 254 247 9
3.09601283073425293 1.0654221773147583 0.756404876708984375 1 255 254 247 9
3.13855671882629395 1.07779216766357422 0.755301475524902344 1 255 254 247 9
3.15012383460998535 1.05206286907196045 0.757988691329956055 1 255 254 247 9
3.17334246635437012 1.06328773498535156 0.759810686111450195 1 255 254 247 9
3.20395088195800781 1.08108961582183838 0.751156091690063477 1 255 254 247 9
3.18268609046936035 1.10024237632751465 0.749656796455383301 1 255 254 247 9
3.42141532897949219 1.08132600784301758 0.755898058414459229 1 255 254 247 9
3.41720867156982422 1.1311347484588623 0.76027292013168335 1 255 254 247 9
2.81525278091430664 0.922812461853027344 0.58311164379119873 1 255 254 247 9
2.85457682609558105 0.889984011650085449 0.581422865390777588 1 255 254 247 9
2.82579541206359863 0.921545445919036865 0.599770069122314453 1 255 254 247 9
2.79075026512145996 0.956293463706970215 0.613418757915496826 1 255 254 247 9
2.83578968048095703 0.887824177742004395 0.573970377445220947 1 255 254 247 9
3.4339759349822998 0.865395903587341309 0.747703194618225098 1 255 254 247 9
3.48988938331604004 0.912017226219177246 0.746226847171783447 1 255 254 247 9
3.46193122863769531 0.90082085132598877 0.746411442756652832 1 255 254 247 9
3.48415160179138184 0.974511325359344482 0.7530364990234375 1 255 254 247 9
3.00924134254455566 0.650679945945739746 0.745465338230133057 1 255 254 247 9
3.05311226844787598 0.662521600723266602 0.747502565383911133 1 255 254 247 9
2.98191452026367188 0.62922966480255127 0.74278944730758667 1 255 254 247 9
2.99002337455749512 0.681949615478515625 0.748121559619903564 1 255 254 247 9
2.97740626335144043 0.762027084827423096 0.759559035301208496 1 255 254 247 9
2.78290057182312012 0.857166945934295654 0.664077937602996826 1 255 254 247 9
2.58812499046325684 0.815937519073486328 0.763749361038208008 1 255 254 247 9
2.54017496109008789 0.847898662090301514 0.764631569385528564 1 255 254 247 9
3.29579257965087891 0.55268329381942749 0.733390986919403076 1 255 254 247 9
3.3557741641998291 0.607301890850067139 0.730008423328399658 1 255 254 247 9
3.42586326599121094 0.68474501371383667 0.73441469669342041 1 255 254 247 9
3.43714380264282227 1.17110061645507812 0.955596983432769775 1 255 254 247 9
2.75542330741882324 0.949265658855438232 0.558280050754547119 1 255 254 247 9
3.37055683135986328 1.10401248931884766 0.756781697273254395 1 255 254 247 9
3.3941960334777832 1.13755691051483154 0.752476990222930908 1 255 254 247 9
3.39227795600891113 1.17795169353485107 0.734441220760345459 1 255 254 247 9
3.42145586013793945 1.16106009483337402 0.750770509243011475 1 255 254 247 9
3.38218212127685547 1.17054855823516846 0.743192493915557861 1 255 254 247 9
3.38434696197509766 1.1814570426940918 0.713255167007446289 1 255 254 247 9
3.11491227149963379 1.08995938301086426 0.660992920398712158 1 255 254 247 9
3.08417940139770508 1.07087397575378418 0.671122729778289795 1 255 254 247 9
3.27218079566955566 1.07967996597290039 0.750828206539154053 1 255 254 247 9
3.20617079734802246 1.11686992645263672 0.740209102630615234 1 255 254 247 9
3.25177168846130371 1.11321628093719482 0.744763731956481934 1 255 254 247 9
3.23139214515686035 0.780036330223083496 0.74151766300201416 1 255 254 247 9
3.43455743789672852 1.16757607460021973 0.785019516944885254 1 255 254 247 9
3.02813076972961426 0.727377116680145264 0.749296188354492188 1 255 254 247 9
3.05641007423400879 0.795141696929931641 0.749388813972473145 1 255 254 247 9
3.20697021484375 0.924422502517700195 0.757987439632415771 1 255 254 247 9
3.15551900863647461 0.931576013565063477 0.75004124641418457 1 255 254 247 9
3.32580184936523438 0.691278636455535889 0.735228538513183594 1 255 254 247 9
3.29012870788574219 0.76537024974822998 0.735454559326171875 1 255 254 247 9
3.31016874313354492 0.808691918849945068 0.743895649909973145 1 255 254 247 9
2.79423189163208008 0.547500014305114746 0.754593610763549805 1 255 254 247 9
2.74769210815429688 0.608247160911560059 0.758987307548522949 1 255 254 247 9
3.31723356246948242 1.14480555057525635 0.747252285480499268 1 255 254 247 9
3.35146188735961914 1.13925445079803467 0.754918515682220459 1 255 254 247 9
2.90070700645446777 0.978060603141784668 0.744170188903808594 1 255 254 247 9
2.9537351131439209 0.993866801261901855 0.745441854000091553 1 255 254 247 9
2.90297627449035645 0.959518194198608398 0.757706940174102783 1 255 254 247 9
3.50859689712524414 0.72858726978302002 0.749870836734771729 1 255 254 247 9
3.50467777252197266 0.765828073024749756 0.74553382396697998 1 255 254 247 9
3.47392988204956055 0.805404603481292725 0.743471086025238037 1 255 254 247 9
3.45705342292785645 0.730750679969787598 0.740189313888549805 1 255 254 247 9
2.90473556518554688 0.967356383800506592 0.61982417106628418 1 255 254 247 9
2.86888647079467773 0.944110333919525146 0.614607870578765869 1 255 254 247 9
3.07844948768615723 0.868477106094360352 0.755080342292785645 1 255 254 247 9
3.08677792549133301 0.923459887504577637 0.759421348571777344 1 255 254 247 9
3.05361175537109375 0.904268145561218262 0.752610743045806885 1 255 254 247 9
3.49339842796325684 1.16944694519042969 0.8472023606300354 1 255 254 247 9
3.46505904197692871 1.16968095302581787 0.87483137845993042 1 255 254 247 9
3.4852147102355957 1.17647290229797363 0.808498799800872803 1 255 254 247 9
3.37878179550170898 1.03035831451416016 0.75297170877456665 1 255 254 247 9
3.33658909797668457 0.969301402568817139 0.74994349479675293 1 255 254 247 9
3.42891955375671387 1.02352654933929443 0.751982629299163818 1 255 254 247 9
2.73445534706115723 0.882797598838806152 0.669553697109222412 1 255 254 247 9
2.82868051528930664 0.863947749137878418 0.563196837902069092 1 255 254 247 9
2.79279613494873047 0.94952094554901123 0.750366747379302979 1 255 254 247 9
3.00898218154907227 0.603407084941864014 0.749601185321807861 1 255 254 247 9
2.97990250587463379 0.587159276008605957 0.741118550300598145 1 255 254 247 9
3.46899604797363281 1.18278133869171143 0.981118440628051758 1 255 254 247 9
3.4446561336517334 1.17602169513702393 0.984193861484527588 1 255 254 247 9
3.50401687622070312 1.17029714584350586 0.950141429901123047 1 255 254 247 9
3.47936820983886719 1.17752742767333984 1.03622257709503174 1 255 254 247 9
3.45485115051269531 1.17791140079498291 1.03689897060394287 1 255 254 247 9
3.46773934364318848 1.18021869659423828 0.946403801441192627 1 255 254 247 9
3.16757106781005859 0.519111216068267822 0.741583824157714844 1 255 254 247 9
3.15012836456298828 0.592849671840667725 0.744534075260162354 1 255 254 247 9
3.12736749649047852 0.576464414596557617 0.758309543132781982 1 255 254 247 9
3.16312503814697266 0.628749966621398926 0.742844343185424805 1 255 254 247 9
3.18498778343200684 0.518419921398162842 0.73695451021194458 1 255 254 247 9
3.50404906272888184 1.18843793869018555 1.07014501094818115 1 255 254 247 9
3.4681861400604248 1.1843487024307251 1.06424427032470703 1 255 254 247 9
3.11930060386657715 0.858226776123046875 0.748380601406097412 1 255 254 247 9
3.19362831115722656 0.798564434051513672 0.743209958076477051 1 255 254 247 9
3.1431574821472168 0.795597434043884277 0.744916737079620361 1 255 254 247 9
3.06690168380737305 0.736117660999298096 0.748387336730957031 1 255 254 247 9
3.09505939483642578 0.803486347198486328 0.747847437858581543 1 255 254 247 9
3.36428427696228027 0.56882554292678833 0.730700016021728516 1 255 254 247 9
3.37655162811279297 0.623306989669799805 0.732016503810882568 1 255 254 247 9
3.42092585563659668 0.605282247066497803 0.730025053024291992 1 255 254 247 9
2.84416294097900391 0.968956828117370605 0.751630425453186035 1 255 254 247 9
2.87413930892944336 0.979786396026611328 0.752078592777252197 1 255 254 247 9
2.76363277435302734 0.953406572341918945 0.603479743003845215 1 255 254 247 9
2.77175450325012207 0.880773305892944336 0.587887406349182129 1 255 254 247 9
2.76301670074462891 0.91497492790222168 0.565203070640563965 1 255 254 247 9
2.76510167121887207 0.88498455286026001 0.524585843086242676 1 255 254 247 9
2.76356768608093262 0.946373879909515381 0.653110861778259277 1 255 254 247 9
2.96089744567871094 0.989807724952697754 0.623938858509063721 1 255 254 247 9
3.45623636245727539 1.01095998287200928 0.760457694530487061 1 255 254 247 9
3.45664739608764648 0.970428824424743652 0.751214146614074707 1 255 254 247 9
2.53170371055603027 0.785905599594116211 0.765641689300537109 1 255 254 247 9
2.71767377853393555 0.930059909820556641 0.666826784610748291 1 255 254 247 9
2.76780056953430176 0.931253373622894287 0.665851414203643799 1 255 254 247 9
2.59721899032592773 0.796857535839080811 0.665161252021789551 1 255 254 247 9
2.60944843292236328 0.871511459350585938 0.669422507286071777 1 255 254 247 9
2.54967498779296875 0.798425793647766113 0.67283177375793457 1 255 254 247 9
3.2355802059173584 0.633614897727966309 0.742856264114379883 1 255 254 247 9
3.18562078475952148 0.690496861934661865 0.739798128604888916 1 255 254 247 9
3.24922990798950195 0.704704582691192627 0.736584782600402832 1 255 254 247 9
3.40999984741210938 0.922499954700469971 0.748001575469970703 1 255 254 247 9
3.43853259086608887 0.947222232818603516 0.74642479419708252 1 255 254 247 9
3.38346385955810547 0.8735848069190979 0.746648073196411133 1 255 254 247 9
3.04663610458374023 0.854877173900604248 0.751876890659332275 1 255 254 247 9
3.02897477149963379 0.780364930629730225 0.754938840866088867 1 255 254 247 9
3.00068211555480957 0.833077669143676758 0.770219206809997559 1 255 254 247 9
2.97486114501953125 0.828594088554382324 0.777713179588317871 1 255 254 247 9
2.94736218452453613 0.8898162841796875 0.78789210319519043 1 255 254 247 9
3.01783061027526855 0.849038422107696533 0.762398004531860352 1 255 254 247 9
2.98821663856506348 0.883874475955963135 0.781304895877838135 1 255 254 247 9
2.86944270133972168 0.843123853206634521 0.76203840970993042 1 255 254 247 9
2.83249998092651367 0.807500004768371582 0.757756412029266357 1 255 254 247 9
3.41424989700317383 0.797189295291900635 0.742791473865509033 1 255 254 247 9
3.36650514602661133 0.792349874973297119 0.743113517761230469 1 255 254 247 9
2.6574852466583252 0.923281311988830566 0.745688915252685547 1 255 254 247 9
2.71671962738037109 0.935307800769805908 0.746460616588592529 1 255 254 247 9
2.88746881484985352 0.783990263938903809 0.761892735958099365 1 255 254 247 9
2.94553756713867188 0.822364687919616699 0.768713533878326416 1 255 254 247 9
3.32066750526428223 1.10514628887176514 0.685186386108398438 1 255 254 247 9
3.31007266044616699 1.11522305011749268 0.675004780292510986 1 255 254 247 9
3.33612990379333496 1.1039435863494873 0.675280511379241943 1 255 254 247 9
3.2883601188659668 1.10229694843292236 0.670975565910339355 1 255 254 247 9
2.69000005722045898 0.769999980926513672 0.759514093399047852 1 255 254 247 9
2.65072512626647949 0.770510435104370117 0.761956870555877686 1 255 254 247 9
2.62033462524414062 0.855977296829223633 0.763425529003143311 1 255 254 247 9
2.68499994277954102 0.857499957084655762 0.760614514350891113 1 255 254 247 9
2.53089308738708496 0.888002336025238037 0.665614426136016846 1 255 254 247 9
2.5892329216003418 0.891109228134155273 0.66957402229309082 1 255 254 247 9
2.59093809127807617 0.912685811519622803 0.664867699146270752 1 255 254 247 9
