ply
format ascii 1.0
element vertex 599
property float x
property float y
property float z
property uchar red
property uchar green
property uchar blue
property uchar alpha
property uint label
end_header
6.15471458435058594 1.46116292476654053 2.34681391716003418 190 153 112 255 1
6.14477157592773438 1.44923543930053711 2.36521077156066895 190 153 112 255 1
6.1775822639465332 1.45439243316650391 2.39260959625244141 190 153 112 255 1
6.18721199035644531 1.47140598297119141 2.35911655426025391 190 153 112 255 1
6.18163108825683594 1.45654833316802979 2.37343335151672363 190 153 112 255 1
5.92767906188964844 1.34822189807891846 2.07166218757629395 190 153 112 255 1
5.95086240768432617 1.35639739036560059 2.09682941436767578 190 153 112 255 1
5.82508373260498047 1.30047774314880371 2.28124666213989258 190 153 112 255 1
5.73822021484375 1.28371763229370117 2.27395987510681152 190 153 112 255 1
5.79707479476928711 1.28961920738220215 2.25767207145690918 190 153 112 255 1
5.71920919418334961 1.2893681526184082 2.01107287406921387 190 153 112 255 1
5.76320838928222656 1.29018294811248779 1.98886263370513916 190 153 112 255 1
5.69379091262817383 1.28293037414550781 1.99621224403381348 190 153 112 255 1
5.71434307098388672 1.29329252243041992 1.78648126125335693 190 153 112 255 1
5.67978858947753906 1.29078876972198486 1.77647614479064941 190 153 112 255 1
5.68006277084350586 1.2783198356628418 1.82553243637084961 190 153 112 255 1
5.70003747940063477 1.28758442401885986 1.8132781982421875 190 153 112 255 1
5.79696035385131836 1.29326152801513672 2.31319141387939453 190 153 112 255 1
5.83189105987548828 1.3052370548248291 2.32387876510620117 190 153 112 255 1
5.80286550521850586 1.301033616065979 2.41391158103942871 190 153 112 255 1
5.76300239562988281 1.2882072925567627 2.3555757999420166 190 153 112 255 1
5.81345415115356445 1.30326390266418457 2.36738753318786621 190 153 112 255 1
5.78488874435424805 1.29654061794281006 2.05820536613464355 190 153 112 255 1
6.07783746719360352 1.43193769454956055 2.36443543434143066 190 153 112 255 1
6.08619880676269531 1.42013299465179443 2.3827362060546875 190 153 112 255 1
5.50389337539672852 1.21480739116668701 1.78612887859344482 190 153 112 255 1
5.86439609527587891 1.31441962718963623 2.20936369895935059 190 153 112 255 1
5.89489173889160156 1.33467090129852295 2.23863720893859863 190 153 112 255 1
5.92984199523925781 1.34413552284240723 2.15685725212097168 190 153 112 255 1
5.89280462265014648 1.33028304576873779 2.20337390899658203 190 153 112 255 1
5.52919530868530273 1.19747650623321533 2.36116433143615723 190 153 112 255 1
5.56320381164550781 1.20463848114013672 2.38470053672790527 190 153 112 255 1
5.5087733268737793 1.19365525245666504 2.32827997207641602 190 153 112 255 1
5.57009267807006836 1.21271765232086182 2.32936716079711914 190 153 112 255 1
5.96804428100585938 1.36433959007263184 2.1214606761932373 190 153 112 255 1
5.95041608810424805 1.3575516939163208 2.05429959297180176 190 153 112 255 1
5.6946568489074707 1.28934693336486816 1.7377469539642334 190 153 112 255 1
5.57801914215087891 1.26528346538543701 1.59064316749572754 190 153 112 255 1
5.63855457305908203 1.28608047962188721 1.58354949951171875 190 153 112 255 1
6.12081670761108398 1.43912589550018311 2.42361044883728027 190 153 112 255 1
6.24243354797363281 1.48932230472564697 2.37529993057250977 190 153 112 255 1
5.55808496475219727 1.25913715362548828 1.55548262596130371 190 153 112 255 1
5.75419521331787109 1.29091954231262207 2.20061230659484863 190 153 112 255 1
5.61017799377441406 1.24550318717956543 2.02092623710632324 190 153 112 255 1
5.57942867279052734 1.2326047420501709 2.04427766799926758 190 153 112 255 1
5.63754177093505859 1.25332093238830566 2.06192278861999512 190 153 112 255 1
5.59148168563842773 1.24142956733703613 1.96018135547637939 190 153 112 255 1
5.58797025680541992 1.24957466125488281 1.90057039260864258 190 153 112 255 1
5.55037355422973633 1.22680103778839111 1.90461063385009766 190 153 112 255 1
5.52783107757568359 1.21335339546203613 2.00220608711242676 190 153 112 255 1
5.52451658248901367 1.21735000610351562 1.95805633068084717 190 153 112 255 1
5.55954885482788086 1.23149263858795166 1.93536126613616943 190 153 112 255 1
5.57554960250854492 1.23439192771911621 1.99363851547241211 190 153 112 255 1
5.7548832893371582 1.28784799575805664 2.24253368377685547 190 153 112 255 1
5.76036834716796875 1.28802704811096191 2.31323409080505371 190 153 112 255 1
5.58460235595703125 1.25046265125274658 1.79501855373382568 190 153 112 255 1
5.57529497146606445 1.24405395984649658 1.83510303497314453 190 153 112 255 1
5.50291776657104492 1.20848679542541504 1.82463467121124268 190 153 112 255 1
5.7253265380859375 1.27233827114105225 2.3486933708190918 190 153 112 255 1
5.76426172256469727 1.28936159610748291 2.39282608032226562 190 153 112 255 1
5.72785425186157227 1.28894889354705811 2.06470584869384766 190 153 112 255 1
5.73279857635498047 1.28183948993682861 2.14499258995056152 190 153 112 255 1
5.73077630996704102 1.28936076164245605 2.10257649421691895 190 153 112 255 1
5.54409074783325195 1.25263774394989014 1.5860133171081543 190 153 112 255 1
5.55855989456176758 1.25403964519500732 1.62415790557861328 190 153 112 255 1
5.52298069000244141 1.23714077472686768 1.64749455451965332 190 153 112 255 1
5.98218870162963867 1.35858917236328125 2.36498141288757324 190 153 112 255 1
6.06313323974609375 1.39449810981750488 2.39371514320373535 190 153 112 255 1
6.02087116241455078 1.37849998474121094 2.35956668853759766 190 153 112 255 1
5.98265504837036133 1.36347281932830811 2.33277392387390137 190 153 112 255 1
5.65857696533203125 1.29596972465515137 1.55754208564758301 190 153 112 255 1
5.61715936660766602 1.28510093688964844 1.53620266914367676 190 153 112 255 1
5.62080287933349609 1.23418450355529785 2.41079998016357422 190 153 112 255 1
5.83474206924438477 1.30341160297393799 2.40724039077758789 190 153 112 255 1
5.76925992965698242 1.29537069797515869 2.42151594161987305 190 153 112 255 1
6.15027523040771484 1.50612199306488037 1.10362040996551514 190 153 112 255 1
6.15377235412597656 1.50857627391815186 0.698845982551574707 190 153 112 255 1
6.17248201370239258 1.52235066890716553 1.12366068363189697 190 153 112 255 1
6.22268486022949219 1.52976429462432861 1.10865688323974609 190 153 112 255 1
6.20559263229370117 1.5287783145904541 1.14603495597839355 190 153 112 255 1
6.18850374221801758 1.50292491912841797 0.896695613861083984 190 153 112 255 1
6.17302131652832031 1.52473413944244385 1.16978120803833008 190 153 112 255 1
6.22636318206787109 1.53736412525177002 0.767878592014312744 190 153 112 255 1
6.20537185668945312 1.50873994827270508 0.99907231330871582 190 153 112 255 1
6.25232934951782227 1.54768073558807373 1.0746990442276001 190 153 112 255 1
6.23155832290649414 1.53212392330169678 1.06469464302062988 190 153 112 255 1
6.21302318572998047 1.52382028102874756 1.0402909517288208 190 153 112 255 1
6.17708396911621094 1.51318228244781494 1.07769203186035156 190 153 112 255 1
6.17488622665405273 1.51555800437927246 0.748547911643981934 190 153 112 255 1
6.24481487274169922 1.53728556632995605 0.917022883892059326 190 153 112 255 1
6.24778270721435547 1.53843557834625244 0.947933793067932129 190 153 112 255 1
6.18716192245483398 1.50507140159606934 0.941283226013183594 190 153 112 255 1
6.2536463737487793 1.54444253444671631 1.02461099624633789 190 153 112 255 1
6.19031381607055664 1.51585781574249268 0.788995623588562012 190 153 112 255 1
6.25249624252319336 1.53081393241882324 0.980894982814788818 190 153 112 255 1
6.22278213500976562 1.5430835485458374 0.705837368965148926 190 153 112 255 1
6.24244499206542969 1.54825663566589355 1.11577165126800537 190 153 112 255 1
6.23898935317993164 1.53962135314941406 0.84539639949798584 190 153 112 255 1
6.24617719650268555 1.53387415409088135 0.88277667760848999 190 153 112 255 1
6.16417837142944336 1.51518082618713379 1.20665669441223145 190 153 112 255 1
6.20202732086181641 1.52559792995452881 1.20380985736846924 190 153 112 255 1
6.21382522583007812 1.51837146282196045 0.882660508155822754 190 153 112 255 1
6.15976953506469727 1.5076824426651001 1.04004263877868652 190 153 112 255 1
6.17941093444824219 1.50412654876708984 0.856019556522369385 190 153 112 255 1
6.23624801635742188 1.54243803024291992 0.810426890850067139 190 153 112 255 1
6.16496849060058594 1.51953315734863281 2.33354663848876953 190 153 112 255 1
6.19246959686279297 1.50828182697296143 2.34302949905395508 190 153 112 255 1
6.07545995712280273 1.50985383987426758 2.30994558334350586 190 153 112 255 1
6.1042475700378418 1.53558576107025146 2.31351947784423828 190 153 112 255 1
6.12980747222900391 1.51110994815826416 2.32345294952392578 190 153 112 255 1
6.12635946273803711 1.53887677192687988 2.31856799125671387 190 153 112 255 1
6.23125410079956055 1.51755392551422119 2.34622311592102051 190 153 112 255 1
6.23560905456542969 1.50623536109924316 2.35916471481323242 190 153 112 255 1
2.4629209041595459 0.102461360394954681 2.20922541618347168 190 153 112 255 1
2.54909443855285645 0.126910611987113953 2.32510232925415039 190 153 112 255 1
2.53489136695861816 0.118166588246822357 2.28977084159851074 190 153 112 255 1
2.47961592674255371 0.0994284376502037048 2.2518460750579834 190 153 112 255 1
2.49877643585205078 0.108323521912097931 2.28600692749023438 190 153 112 255 1
2.55012059211730957 0.130213052034378052 2.22817397117614746 190 153 112 255 1
2.54233193397521973 0.128561943769454956 2.25594353675842285 190 153 112 255 1
2.50610041618347168 0.120650909841060638 2.36823511123657227 190 153 112 255 1
2.51878905296325684 0.117860421538352966 2.35126614570617676 190 153 112 255 1
2.46620273590087891 0.093435242772102356 2.44206571578979492 190 153 112 255 1
2.46288609504699707 0.100729882717132568 2.31594634056091309 190 153 112 255 1
2.48483061790466309 0.114417284727096558 2.37902688980102539 190 153 112 255 1
2.47875833511352539 0.11374819278717041 2.20666193962097168 190 153 112 255 1
2.50551915168762207 0.141348317265510559 2.19166922569274902 190 153 112 255 1
2.50732159614562988 0.11531694233417511 2.23683071136474609 190 153 112 255 1
2.50874710083007812 0.11947554349899292 2.43510794639587402 190 153 112 255 1
2.51380181312561035 0.123077042400836945 2.40192103385925293 190 153 112 255 1
2.55897259712219238 0.131858587265014648 2.44334530830383301 190 153 112 255 1
2.90516853332519531 0.243869900703430176 2.40604519844055176 190 153 112 255 1
2.94585633277893066 0.260600656270980835 2.41236758232116699 190 153 112 255 1
3.12512540817260742 0.320963531732559204 2.39166903495788574 190 153 112 255 1
2.65498089790344238 0.154169827699661255 2.35754752159118652 190 153 112 255 1
2.65067887306213379 0.162404686212539673 2.42000770568847656 190 153 112 255 1
2.81035351753234863 0.209208890795707703 2.40813255310058594 190 153 112 255 1
2.87510466575622559 0.232169821858406067 2.45487165451049805 190 153 112 255 1
2.84089207649230957 0.215606749057769775 2.44414806365966797 190 153 112 255 1
3.0463254451751709 0.299438893795013428 2.41261816024780273 190 153 112 255 1
3.07423782348632812 0.310372233390808105 2.44427657127380371 190 153 112 255 1
3.07230901718139648 0.302518546581268311 2.40295124053955078 190 153 112 255 1
3.04611849784851074 0.299447000026702881 2.45269632339477539 190 153 112 255 1
2.96919727325439453 0.257414698600769043 2.30704402923583984 190 153 112 255 1
3.01997208595275879 0.273747235536575317 2.30229449272155762 190 153 112 255 1
2.92419838905334473 0.243025854229927063 2.27985310554504395 190 153 112 255 1
3.10362029075622559 0.316255152225494385 2.34804582595825195 190 153 112 255 1
3.08329081535339355 0.302283644676208496 2.33064126968383789 190 153 112 255 1
3.14715242385864258 0.321773320436477661 2.2918546199798584 190 153 112 255 1
3.17698955535888672 0.330185472965240479 2.38049936294555664 190 153 112 255 1
3.18033957481384277 0.330467313528060913 2.3455655574798584 190 153 112 255 1
3.11209011077880859 0.313302814960479736 2.32924199104309082 190 153 112 255 1
3.14801478385925293 0.330062329769134521 2.36655068397521973 190 153 112 255 1
2.6462104320526123 0.164279535412788391 2.38503599166870117 190 153 112 255 1
3.37425518035888672 0.383761018514633179 2.38734292984008789 190 153 112 255 1
2.78527331352233887 0.196050211787223816 2.33675408363342285 190 153 112 255 1
2.84546542167663574 0.207776740193367004 2.3112640380859375 190 153 112 255 1
2.86350178718566895 0.221648856997489929 2.34300518035888672 190 153 112 255 1
2.81495833396911621 0.203154727816581726 2.38236665725708008 190 153 112 255 1
2.87138009071350098 0.224586710333824158 2.37977004051208496 190 153 112 255 1
2.86871910095214844 0.233993828296661377 2.40543031692504883 190 153 112 255 1
2.72375321388244629 0.176224946975708008 2.36645746231079102 190 153 112 255 1
2.78858518600463867 0.199266746640205383 2.37030839920043945 190 153 112 255 1
2.79944419860839844 0.193741112947463989 2.2960202693939209 190 153 112 255 1
2.78561997413635254 0.203855812549591064 2.39959907531738281 190 153 112 255 1
2.71906638145446777 0.174057319760322571 2.31947684288024902 190 153 112 255 1
2.75219392776489258 0.181498125195503235 2.32433724403381348 190 153 112 255 1
2.76533961296081543 0.188493385910987854 2.37235522270202637 190 153 112 255 1
3.41001105308532715 0.39295119047164917 2.43301725387573242 190 153 112 255 1
3.35161995887756348 0.390564948320388794 2.42466568946838379 190 153 112 255 1
3.29060053825378418 0.365704596042633057 2.36222553253173828 190 153 112 255 1
3.21809697151184082 0.340743213891983032 2.3672490119934082 190 153 112 255 1
2.67690467834472656 0.162551566958427429 2.31985092163085938 190 153 112 255 1
2.68765926361083984 0.162466749548912048 2.36226201057434082 190 153 112 255 1
2.67720341682434082 0.168920189142227173 2.38402605056762695 190 153 112 255 1
2.74746346473693848 0.188773930072784424 2.39661931991577148 190 153 112 255 1
2.7540736198425293 0.187893956899642944 2.44228935241699219 190 153 112 255 1
2.79136514663696289 0.209493100643157959 2.44386458396911621 190 153 112 255 1
2.70975375175476074 0.177180379629135132 2.43371009826660156 190 153 112 255 1
2.92832446098327637 0.254149466753005981 2.43685626983642578 190 153 112 255 1
2.98911833763122559 0.275504201650619507 2.43046665191650391 190 153 112 255 1
3.01745223999023438 0.281186282634735107 2.41588163375854492 190 153 112 255 1
3.01131272315979004 0.27699732780456543 2.39213156700134277 190 153 112 255 1
3.01744842529296875 0.278092026710510254 2.44029045104980469 190 153 112 255 1
3.31886005401611328 0.374867141246795654 2.44812679290771484 190 153 112 255 1
2.9374239444732666 0.25034487247467041 2.33359932899475098 190 153 112 255 1
2.94455337524414062 0.253129512071609497 2.38710975646972656 190 153 112 255 1
2.96917939186096191 0.258500784635543823 2.38894343376159668 190 153 112 255 1
2.90648555755615234 0.235868245363235474 2.37958884239196777 190 153 112 255 1
3.09627699851989746 0.324912220239639282 2.44491934776306152 190 153 112 255 1
3.09960460662841797 0.315319806337356567 2.39870786666870117 190 153 112 255 1
3.09769511222839355 0.326184898614883423 2.42005395889282227 190 153 112 255 1
2.64598679542541504 0.142099156975746155 2.30038881301879883 190 153 112 255 1
2.6839301586151123 0.159096688032150269 2.28534746170043945 190 153 112 255 1
3.30958104133605957 0.373466163873672485 2.37290382385253906 190 153 112 255 1
2.85593533515930176 0.211749985814094543 2.29427719116210938 190 153 112 255 1
2.57139682769775391 0.124075829982757568 2.28880691528320312 190 153 112 255 1
2.90448188781738281 0.231741741299629211 2.31097793579101562 190 153 112 255 1
2.60837793350219727 0.136275157332420349 2.43643712997436523 190 153 112 255 1
2.64287424087524414 0.146740630269050598 2.32070779800415039 190 153 112 255 1
2.58214807510375977 0.131729975342750549 2.35973858833312988 190 153 112 255 1
2.5670168399810791 0.137940376996994019 2.39105033874511719 190 153 112 255 1
2.59888219833374023 0.143257230520248413 2.3802790641784668 190 153 112 255 1
3.24749994277954102 0.345821499824523926 2.41968512535095215 190 153 112 255 1
3.04897975921630859 0.289737284183502197 2.3208010196685791 190 153 112 255 1
2.74139738082885742 0.174368590116500854 2.29177093505859375 190 153 112 255 1
3.27178382873535156 0.357956975698471069 2.38610100746154785 190 153 112 255 1
3.30283904075622559 0.376780271530151367 2.40147089958190918 190 153 112 255 1
3.29150223731994629 0.36832079291343689 2.43487906455993652 190 153 112 255 1
2.69844698905944824 0.161588862538337708 2.29905915260314941 190 153 112 255 1
3.04697084426879883 0.295780181884765625 2.34859967231750488 190 153 112 255 1
2.99558687210083008 0.270378768444061279 2.33997797966003418 190 153 112 255 1
3.14734530448913574 0.327665030956268311 2.40578079223632812 190 153 112 255 1
3.17402076721191406 0.327179938554763794 2.41658711433410645 190 153 112 255 1
3.1984257698059082 0.338688850402832031 2.42396831512451172 190 153 112 255 1
3.14056229591369629 0.333897113800048828 2.42285633087158203 190 153 112 255 1
2.44722962379455566 0.196903258562088013 2.51332259178161621 190 153 112 255 1
2.36419391632080078 0.181839004158973694 2.51092052459716797 190 153 112 255 1
2.4153130054473877 0.196879059076309204 2.51800107955932617 190 153 112 255 1
2.07810497283935547 0.0500643588602542877 2.48582196235656738 190 153 112 255 1
2.31450510025024414 0.134062439203262329 2.49888515472412109 190 153 112 255 1
2.34440732002258301 0.127092882990837097 2.49288845062255859 190 153 112 255 1
2.3913118839263916 0.111112028360366821 2.47625494003295898 190 153 112 255 1
2.16097378730773926 0.0561930984258651733 2.47984504699707031 190 153 112 255 1
2.50707125663757324 0.140199735760688782 2.46664857864379883 190 153 112 255 1
2.2112431526184082 0.209623470902442932 2.54543876647949219 190 153 112 255 1
2.34644794464111328 0.0920705273747444153 2.46671605110168457 190 153 112 255 1
2.08689022064208984 0.0280683301389217377 2.46066927909851074 190 153 112 255 1
2.12735700607299805 0.0212947316467761993 2.45973300933837891 190 153 112 255 1
2.27243995666503906 0.0874962508678436279 2.47405242919921875 190 153 112 255 1
2.27321505546569824 0.0459642745554447174 2.45000243186950684 190 153 112 255 1
2.39715194702148438 0.159911125898361206 2.49400019645690918 190 153 112 255 1
2.45030546188354492 0.146679013967514038 2.47924399375915527 190 153 112 255 1
2.08885717391967773 0.0816585570573806763 2.50332212448120117 190 153 112 255 1
2.05161380767822266 0.089919067919254303 2.51136207580566406 190 153 112 255 1
2.09942817687988281 0.133072659373283386 2.52105259895324707 190 153 112 255 1
2.0476679801940918 0.155150353908538818 2.5418708324432373 190 153 112 255 1
2.46065163612365723 0.0996087044477462769 2.45931267738342285 190 153 112 255 1
2.42920660972595215 0.0927307382225990295 2.46167707443237305 190 153 112 255 1
2.12885332107543945 0.0627802088856697083 2.48553633689880371 190 153 112 255 1
2.13884663581848145 0.122343003749847412 2.50575995445251465 190 153 112 255 1
2.13961362838745117 0.179645881056785583 2.54710078239440918 190 153 112 255 1
2.54522609710693359 0.215585514903068542 2.50099587440490723 190 153 112 255 1
2.53015875816345215 0.166216418147087097 2.48303580284118652 190 153 112 255 1
2.47845315933227539 0.185267418622970581 2.50699520111083984 190 153 112 255 1
2.27972269058227539 0.137581855058670044 2.50504541397094727 190 153 112 255 1
2.22807621955871582 0.105265416204929352 2.48456621170043945 190 153 112 255 1
2.2988893985748291 0.0817265734076499939 2.46338486671447754 190 153 112 255 1
2.5034935474395752 0.234649315476417542 2.52182817459106445 190 153 112 255 1
2.48337483406066895 0.268279850482940674 2.54421496391296387 190 153 112 255 1
2.45583820343017578 0.24546457827091217 2.52901244163513184 190 153 112 255 1
2.20565009117126465 0.0996927246451377869 2.48768997192382812 190 153 112 255 1
2.16561007499694824 0.146407946944236755 2.52578043937683105 190 153 112 255 1
2.21555018424987793 0.142236232757568359 2.51827263832092285 190 153 112 255 1
2.17580842971801758 0.114585094153881073 2.50088357925415039 190 153 112 255 1
2.37101221084594727 0.220386967062950134 2.53691005706787109 190 153 112 255 1
2.37696456909179688 0.249867662787437439 2.54484820365905762 190 153 112 255 1
2.31403207778930664 0.186383873224258423 2.5177910327911377 190 153 112 255 1
2.24791646003723145 0.197177931666374207 2.53805255889892578 190 153 112 255 1
2.28096747398376465 0.198788508772850037 2.52929496765136719 190 153 112 255 1
2.48812723159790039 0.127573162317276001 2.46300029754638672 190 153 112 255 1
2.22274589538574219 0.0453067831695079803 2.4638669490814209 190 153 112 255 1
2.16627645492553711 0.0285182222723960876 2.46245408058166504 190 153 112 255 1
2.12617206573486328 0.329536706209182739 2.6262664794921875 190 153 112 255 1
2.08594870567321777 0.342216044664382935 2.63149619102478027 190 153 112 255 1
2.21939516067504883 0.244941055774688721 2.57817673683166504 190 153 112 255 1
2.24102067947387695 0.232451140880584717 2.56357908248901367 190 153 112 255 1
2.35012078285217285 0.318217724561691284 2.59348058700561523 190 153 112 255 1
2.25399613380432129 0.33260074257850647 2.61495494842529297 190 153 112 255 1
2.22506070137023926 0.346644192934036255 2.62693262100219727 190 153 112 255 1
2.2667083740234375 0.385711550712585449 2.63195371627807617 190 153 112 255 1
2.31390261650085449 0.389755785465240479 2.63472867012023926 190 153 112 255 1
2.02928686141967773 0.313112318515777588 2.62957048416137695 190 153 112 255 1
1.9871058464050293 0.257130295038223267 2.60432004928588867 190 153 112 255 1
2.06347060203552246 0.288366436958312988 2.61220073699951172 190 153 112 255 1
2.01400065422058105 0.290218323469161987 2.615234375 190 153 112 255 1
2.48478937149047852 0.401814490556716919 2.61501812934875488 190 153 112 255 1
2.53513169288635254 0.408450096845626831 2.60486984252929688 190 153 112 255 1
2.49516797065734863 0.377317041158676147 2.60529613494873047 190 153 112 255 1
2.46051883697509766 0.332896590232849121 2.57561421394348145 190 153 112 255 1
2.43973755836486816 0.366800934076309204 2.6109001636505127 190 153 112 255 1
2.44305181503295898 0.3861369788646698 2.61959314346313477 190 153 112 255 1
2.41757845878601074 0.369474828243255615 2.60850405693054199 190 153 112 255 1
2.46739292144775391 0.358207583427429199 2.5983736515045166 190 153 112 255 1
2.42472386360168457 0.346944630146026611 2.59120035171508789 190 153 112 255 1
2.38245177268981934 0.39098694920539856 2.62603569030761719 190 153 112 255 1
2.18926548957824707 0.313587933778762817 2.60649895668029785 190 153 112 255 1
2.18306756019592285 0.265652924776077271 2.58879637718200684 190 153 112 255 1
2.21358895301818848 0.292176961898803711 2.59613704681396484 190 153 112 255 1
2.11731100082397461 0.368125349283218384 2.65040135383605957 190 153 112 255 1
2.32555937767028809 0.37183496356010437 2.61697483062744141 190 153 112 255 1
2.38786673545837402 0.375108987092971802 2.61843514442443848 190 153 112 255 1
2.34732937812805176 0.386801362037658691 2.62533783912658691 190 153 112 255 1
2.36526107788085938 0.352614700794219971 2.60551166534423828 190 153 112 255 1
2.5306546688079834 0.312141090631484985 2.55895709991455078 190 153 112 255 1
2.47099614143371582 0.288892030715942383 2.5611109733581543 190 153 112 255 1
2.50450277328491211 0.270616680383682251 2.54575443267822266 190 153 112 255 1
2.15929031372070312 0.224904850125312805 2.56182456016540527 190 153 112 255 1
2.09705281257629395 0.181908115744590759 2.55641484260559082 190 153 112 255 1
2.33955168724060059 0.279597610235214233 2.56462359428405762 190 153 112 255 1
2.38693785667419434 0.316609233617782593 2.58111095428466797 190 153 112 255 1
2.07645726203918457 0.267575353384017944 2.59376049041748047 190 153 112 255 1
2.15802526473999023 0.285606086254119873 2.60129308700561523 190 153 112 255 1
2.09492230415344238 0.303796321153640747 2.61753940582275391 190 153 112 255 1
2.12901067733764648 0.293737530708312988 2.61312484741210938 190 153 112 255 1
2.10893869400024414 0.242527961730957031 2.58036375045776367 190 153 112 255 1
2.15177369117736816 0.266621857881546021 2.58493518829345703 190 153 112 255 1
2.0639033317565918 0.35793226957321167 2.6480717658996582 190 153 112 255 1
2.02662539482116699 0.352692455053329468 2.65041494369506836 190 153 112 255 1
2.09655618667602539 0.374948978424072266 2.6637568473815918 190 153 112 255 1
2.0023655891418457 0.376961708068847656 2.67506623268127441 190 153 112 255 1
1.95237290859222412 0.341186225414276123 2.65713858604431152 190 153 112 255 1
1.97899520397186279 0.341955244541168213 2.65325570106506348 190 153 112 255 1
1.95705342292785645 0.365029901266098022 2.67672014236450195 190 153 112 255 1
2.1748509407043457 0.382869929075241089 2.65571713447570801 190 153 112 255 1
2.43504881858825684 0.279945045709609985 2.56199741363525391 190 153 112 255 1
2.38099384307861328 0.284953385591506958 2.56256294250488281 190 153 112 255 1
2.28794121742248535 0.341325879096984863 2.6162266731262207 190 153 112 255 1
2.32268929481506348 0.235367178916931152 2.5534825325012207 190 153 112 255 1
2.29886603355407715 0.29096713662147522 2.57691764831542969 190 153 112 255 1
2.28233218193054199 0.239658161997795105 2.55948805809020996 190 153 112 255 1
2.1932823657989502 0.355740636587142944 2.63049697875976562 190 153 112 255 1
2.41332888603210449 0.248749807476997375 2.5388493537902832 190 153 112 255 1
2.54498624801635742 0.393258213996887207 2.59762978553771973 190 153 112 255 1
2.49586987495422363 0.333164513111114502 2.56991696357727051 190 153 112 255 1
2.52301597595214844 0.348343700170516968 2.58215785026550293 190 153 112 255 1
2.23177218437194824 0.387682139873504639 2.64320063591003418 190 153 112 255 1
2.0222175121307373 0.229344382882118225 2.5849921703338623 190 153 112 255 1
2.03645086288452148 0.176539808511734009 2.55920004844665527 190 153 112 255 1
2.05481266975402832 0.213452398777008057 2.57781100273132324 190 153 112 255 1
1.97219181060791016 0.30393683910369873 2.62207698822021484 190 153 112 255 1
2.91384410858154297 0.253206461668014526 2.44874048233032227 190 153 112 255 1
2.9024968147277832 0.276373326778411865 2.47642397880554199 190 153 112 255 1
2.53821444511413574 0.266596943140029907 2.53738164901733398 190 153 112 255 1
2.58031296730041504 0.254287242889404297 2.52497386932373047 190 153 112 255 1
2.60583329200744629 0.287277102470397949 2.5340416431427002 190 153 112 255 1
2.85018491744995117 0.323566019535064697 2.51790904998779297 190 153 112 255 1
2.85760259628295898 0.246444165706634521 2.47233295440673828 190 153 112 255 1
2.96416687965393066 0.314556092023849487 2.49375391006469727 190 153 112 255 1
2.99181556701660156 0.398796647787094116 2.5345458984375 190 153 112 255 1
3.02117252349853516 0.394961923360824585 2.52146196365356445 190 153 112 255 1
2.98798847198486328 0.342170178890228271 2.49435710906982422 190 153 112 255 1
2.81607651710510254 0.320769250392913818 2.51819443702697754 190 153 112 255 1
2.88520169258117676 0.317030370235443115 2.50473976135253906 190 153 112 255 1
2.79847860336303711 0.341840863227844238 2.5308375358581543 190 153 112 255 1
2.85045838356018066 0.398556947708129883 2.54897308349609375 190 153 112 255 1
2.63953852653503418 0.191353633999824524 2.47086691856384277 190 153 112 255 1
3.41845083236694336 0.48503798246383667 2.45994400978088379 190 153 112 255 1
2.6958928108215332 0.29880562424659729 2.52529692649841309 190 153 112 255 1
2.67613625526428223 0.321046262979507446 2.5451514720916748 190 153 112 255 1
2.63880825042724609 0.282989531755447388 2.52133536338806152 190 153 112 255 1
2.69626736640930176 0.246905416250228882 2.49691581726074219 190 153 112 255 1
2.88389182090759277 0.368371903896331787 2.53116798400878906 190 153 112 255 1
2.93727231025695801 0.365968167781829834 2.51775693893432617 190 153 112 255 1
2.96626639366149902 0.381298154592514038 2.51901793479919434 190 153 112 255 1
3.04376411437988281 0.433899253606796265 2.54199314117431641 190 153 112 255 1
2.93256258964538574 0.384042859077453613 2.53029823303222656 190 153 112 255 1
2.96427035331726074 0.404164761304855347 2.53579115867614746 190 153 112 255 1
3.01178145408630371 0.432147473096847534 2.54144668579101562 190 153 112 255 1
2.81893157958984375 0.231307268142700195 2.4711453914642334 190 153 112 255 1
3.16657829284667969 0.386301338672637939 2.49020123481750488 190 153 112 255 1
3.19176840782165527 0.365163058042526245 2.46886181831359863 190 153 112 255 1
3.35445165634155273 0.409026205539703369 2.44617557525634766 190 153 112 255 1
2.60149383544921875 0.199262887239456177 2.48373794555664062 190 153 112 255 1
2.58961319923400879 0.16051231324672699 2.4698646068572998 190 153 112 255 1
3.31802630424499512 0.425678402185440063 2.47976350784301758 190 153 112 255 1
3.35025906562805176 0.472162425518035889 2.48467874526977539 190 153 112 255 1
3.30728363990783691 0.453351885080337524 2.49335122108459473 190 153 112 255 1
3.32805275917053223 0.469580262899398804 2.48715400695800781 190 153 112 255 1
3.28286910057067871 0.443789213895797729 2.49274349212646484 190 153 112 255 1
3.42998051643371582 0.459384739398956299 2.44753551483154297 190 153 112 255 1
3.40216326713562012 0.464438527822494507 2.46531319618225098 190 153 112 255 1
3.36965417861938477 0.418480157852172852 2.46745157241821289 190 153 112 255 1
3.38038229942321777 0.469811886548995972 2.46974515914916992 190 153 112 255 1
3.38729310035705566 0.419251441955566406 2.4512324333190918 190 153 112 255 1
3.08617067337036133 0.372226804494857788 2.48311400413513184 190 153 112 255 1
3.04191470146179199 0.333538472652435303 2.48233532905578613 190 153 112 255 1
3.06812119483947754 0.37344774603843689 2.49177026748657227 190 153 112 255 1
3.03617000579833984 0.372839629650115967 2.49776697158813477 190 153 112 255 1
3.09290051460266113 0.403017669916152954 2.50952959060668945 190 153 112 255 1
2.75635814666748047 0.194371283054351807 2.45857763290405273 190 153 112 255 1
2.97952151298522949 0.281636297702789307 2.46083211898803711 190 153 112 255 1
2.98656177520751953 0.297483175992965698 2.4758152961730957 190 153 112 255 1
3.0181126594543457 0.287137299776077271 2.46219539642333984 190 153 112 255 1
3.30536198616027832 0.395839571952819824 2.46246862411499023 190 153 112 255 1
3.33709383010864258 0.433623164892196655 2.47420406341552734 190 153 112 255 1
3.04846310615539551 0.397980868816375732 2.51891350746154785 190 153 112 255 1
3.10143208503723145 0.432739377021789551 2.52919340133666992 190 153 112 255 1
3.07797789573669434 0.427823930978775024 2.5238957405090332 190 153 112 255 1
2.76627278327941895 0.315137296915054321 2.52093243598937988 190 153 112 255 1
2.74925518035888672 0.353043466806411743 2.54117774963378906 190 153 112 255 1
3.13477826118469238 0.385962009429931641 2.48298382759094238 190 153 112 255 1
3.13282608985900879 0.41484186053276062 2.50101566314697266 190 153 112 255 1
3.13382768630981445 0.444892734289169312 2.52670812606811523 190 153 112 255 1
3.17653036117553711 0.447626084089279175 2.5143430233001709 190 153 112 255 1
3.10776495933532715 0.338958233594894409 2.46455645561218262 190 153 112 255 1
3.08245229721069336 0.326532095670700073 2.46023273468017578 190 153 112 255 1
2.87241077423095703 0.278182715177536011 2.48727202415466309 190 153 112 255 1
2.92581415176391602 0.293454110622406006 2.48125648498535156 190 153 112 255 1
2.57546305656433105 0.141759961843490601 2.45847463607788086 190 153 112 255 1
2.61632156372070312 0.149293169379234314 2.45486259460449219 190 153 112 255 1
2.71350455284118652 0.185347974300384521 2.45287227630615234 190 153 112 255 1
2.65338730812072754 0.168478429317474365 2.45064663887023926 190 153 112 255 1
3.23900222778320312 0.355522632598876953 2.44634222984313965 190 153 112 255 1
3.21568679809570312 0.357103168964385986 2.46390795707702637 190 153 112 255 1
3.22033905982971191 0.395796537399291992 2.48124599456787109 190 153 112 255 1
2.72415661811828613 0.215191781520843506 2.47935938835144043 190 153 112 255 1
2.76931571960449219 0.230723276734352112 2.47612786293029785 190 153 112 255 1
3.27394986152648926 0.393649905920028687 2.46580076217651367 190 153 112 255 1
3.21880507469177246 0.465508848428726196 2.51050758361816406 190 153 112 255 1
3.26221656799316406 0.470973402261734009 2.50675725936889648 190 153 112 255 1
3.26183938980102539 0.432400315999984741 2.49950551986694336 190 153 112 255 1
3.19729280471801758 0.447239607572555542 2.51375389099121094 190 153 112 255 1
3.25148272514343262 0.407977491617202759 2.48045802116394043 190 153 112 255 1
2.73747062683105469 0.263655602931976318 2.49828457832336426 190 153 112 255 1
2.79735898971557617 0.272727727890014648 2.49797511100769043 190 153 112 255 1
2.7264549732208252 0.306456178426742554 2.53063082695007324 190 153 112 255 1
2.65158653259277344 0.228166520595550537 2.4984276294708252 190 153 112 255 1
2.68795228004455566 0.202010408043861389 2.4759514331817627 190 153 112 255 1
2.87350845336914062 0.238124534487724304 2.46771764755249023 190 153 112 255 1
3.16209864616394043 0.348881393671035767 2.45802521705627441 190 153 112 255 1
3.14175820350646973 0.345650851726531982 2.45151805877685547 190 153 112 255 1
2.64603686332702637 0.322785019874572754 2.54819774627685547 190 153 112 255 1
2.88186931610107422 0.409081876277923584 2.55363154411315918 190 153 112 255 1
2.57943964004516602 0.355335652828216553 2.58356714248657227 190 153 112 255 1
2.64436984062194824 0.388391077518463135 2.58325600624084473 190 153 112 255 1
2.6771702766418457 0.378860831260681152 2.56256389617919922 190 153 112 255 1
2.71587491035461426 0.382888466119766235 2.56687378883361816 190 153 112 255 1
2.75951576232910156 0.415229469537734985 2.57443356513977051 190 153 112 255 1
2.72901272773742676 0.420209914445877075 2.58248543739318848 190 153 112 255 1
2.98827743530273438 0.424325734376907349 2.54724240303039551 190 153 112 255 1
2.80424070358276367 0.422210991382598877 2.56643319129943848 190 153 112 255 1
2.82172036170959473 0.396127015352249146 2.55544400215148926 190 153 112 255 1
2.8461301326751709 0.424758881330490112 2.56592273712158203 190 153 112 255 1
2.59505558013916016 0.394628345966339111 2.59465527534484863 190 153 112 255 1
2.58830595016479492 0.40274086594581604 2.60442042350769043 190 153 112 255 1
2.7173774242401123 0.349344223737716675 2.54996228218078613 190 153 112 255 1
2.76240253448486328 0.385301023721694946 2.5611119270324707 190 153 112 255 1
2.78880167007446289 0.378245264291763306 2.55507254600524902 190 153 112 255 1
2.8772120475769043 0.421362489461898804 2.56343173980712891 190 153 112 255 1
2.9227452278137207 0.409913063049316406 2.55422568321228027 190 153 112 255 1
2.9555814266204834 0.427447348833084106 2.54861044883728027 190 153 112 255 1
2.56468391418457031 0.305773526430130005 2.54644465446472168 190 153 112 255 1
2.61123061180114746 0.388109922409057617 2.58455157279968262 190 153 112 255 1
2.61932873725891113 0.354834914207458496 2.57123661041259766 190 153 112 255 1
2.6406247615814209 0.4042988121509552 2.59548616409301758 190 153 112 255 1
2.6943659782409668 0.402816832065582275 2.58661532402038574 190 153 112 255 1
2.1493377685546875 0.0498606711626052856 1.8645397424697876 190 153 112 255 1
2.15530300140380859 0.0451918467879295349 1.83773088455200195 190 153 112 255 1
2.3192293643951416 0.0971198081970214844 1.7445061206817627 190 153 112 255 1
2.28138113021850586 0.0826941505074501038 1.75500667095184326 190 153 112 255 1
2.37895727157592773 0.0862670987844467163 2.25744795799255371 190 153 112 255 1
2.33826661109924316 0.0891427919268608093 2.26713085174560547 190 153 112 255 1
2.36104559898376465 0.0846891328692436218 2.2929387092590332 190 153 112 255 1
2.39357590675354004 0.0880493149161338806 2.30636000633239746 190 153 112 255 1
2.39752006530761719 0.0867977440357208252 2.25952935218811035 190 153 112 255 1
2.3354790210723877 0.0713420361280441284 2.44437456130981445 190 153 112 255 1
2.33579611778259277 0.0934152603149414062 1.82655453681945801 190 153 112 255 1
2.36748027801513672 0.108601190149784088 1.87982857227325439 190 153 112 255 1
2.10750627517700195 0.0132921682670712471 2.02520251274108887 190 153 112 255 1
2.10997843742370605 0.0205903500318527222 1.98982298374176025 190 153 112 255 1
2.1956326961517334 0.0225422307848930359 2.33550214767456055 190 153 112 255 1
2.15718293190002441 0.0151702854782342911 2.36761569976806641 190 153 112 255 1
2.41620492935180664 0.0967163071036338806 2.23504281044006348 190 153 112 255 1
2.43658924102783203 0.107412151992321014 2.16251754760742188 190 153 112 255 1
2.44618964195251465 0.0997096151113510132 2.27287554740905762 190 153 112 255 1
2.46311593055725098 0.104699306190013885 2.15809774398803711 190 153 112 255 1
2.32724809646606445 0.072060026228427887 2.30254197120666504 190 153 112 255 1
2.37967085838317871 0.0749238058924674988 2.42699575424194336 190 153 112 255 1
2.36827611923217773 0.0794738605618476868 2.4489288330078125 190 153 112 255 1
2.39089369773864746 0.0894561484456062317 2.19824934005737305 190 153 112 255 1
2.35506772994995117 0.0950777009129524231 2.15084028244018555 190 153 112 255 1
2.33623933792114258 0.106542676687240601 2.22563338279724121 190 153 112 255 1
2.28850889205932617 0.0756337419152259827 2.16684079170227051 190 153 112 255 1
2.29590177536010742 0.0625974535942077637 2.12273359298706055 190 153 112 255 1
2.40327739715576172 0.125315368175506592 1.84875869750976562 190 153 112 255 1
2.42203307151794434 0.128528192639350891 1.8650890588760376 190 153 112 255 1
2.42665910720825195 0.128606438636779785 1.89705073833465576 190 153 112 255 1
2.44683384895324707 0.122579753398895264 1.86871874332427979 190 153 112 255 1
2.46296977996826172 0.136631131172180176 1.82754325866699219 190 153 112 255 1
2.33237767219543457 0.107018262147903442 2.20039987564086914 190 153 112 255 1
2.28629374504089355 0.0812630802392959595 2.19446873664855957 190 153 112 255 1
2.27623438835144043 0.0771230459213256836 2.23544526100158691 190 153 112 255 1
2.30614781379699707 0.0903326794505119324 2.23888254165649414 190 153 112 255 1
2.20710182189941406 0.0248856432735919952 2.37339568138122559 190 153 112 255 1
2.27789068222045898 0.0407034456729888916 2.36438322067260742 190 153 112 255 1
2.24208784103393555 0.0386349372565746307 2.30616068840026855 190 153 112 255 1
2.28612852096557617 0.0530313476920127869 2.30767202377319336 190 153 112 255 1
2.14821743965148926 0.00744078867137432098 2.43828392028808594 190 153 112 255 1
2.09467124938964844 -0.00354377808980643749 2.41832137107849121 190 153 112 255 1
2.14785933494567871 0.00487540476024150848 2.42029237747192383 190 153 112 255 1
2.28793668746948242 0.0435668341815471649 2.39406657218933105 190 153 112 255 1
2.28633403778076172 0.039699900895357132 2.43243122100830078 190 153 112 255 1
2.36954998970031738 0.12363145500421524 1.77901053428649902 190 153 112 255 1
2.32480216026306152 0.0971501097083091736 1.79947185516357422 190 153 112 255 1
2.38430047035217285 0.117931857705116272 1.80686485767364502 190 153 112 255 1
2.32490277290344238 0.0999962836503982544 1.76828491687774658 190 153 112 255 1
2.38236832618713379 0.104112707078456879 1.98749744892120361 190 153 112 255 1
2.28742265701293945 0.0623954832553863525 2.06000232696533203 190 153 112 255 1
2.40179991722106934 0.101635903120040894 2.06912708282470703 190 153 112 255 1
2.3617546558380127 0.0971186310052871704 2.04516863822937012 190 153 112 255 1
2.31173014640808105 0.0771626904606819153 2.01900625228881836 190 153 112 255 1
2.46794438362121582 0.139297038316726685 1.80773687362670898 190 153 112 255 1
2.47885656356811523 0.154681399464607239 1.77112936973571777 190 153 112 255 1
2.43252468109130859 0.131049379706382751 1.80369162559509277 190 153 112 255 1
2.12299799919128418 0.0113752866163849831 2.14362311363220215 190 153 112 255 1
2.40834212303161621 0.083864845335483551 2.43855404853820801 190 153 112 255 1
2.43743348121643066 0.0836480259895324707 2.4397435188293457 190 153 112 255 1
2.18509554862976074 0.0647436827421188354 1.8080374002456665 190 153 112 255 1
2.19122052192687988 0.0614585839211940765 1.83603596687316895 190 153 112 255 1
2.22321295738220215 0.0680139884352684021 1.82294511795043945 190 153 112 255 1
2.38269615173339844 0.137662589550018311 1.74594259262084961 190 153 112 255 1
2.3889005184173584 0.12896864116191864 1.72863221168518066 190 153 112 255 1
2.33315491676330566 0.0810328647494316101 1.73609113693237305 190 153 112 255 1
2.35520672798156738 0.106405369937419891 1.73839259147644043 190 153 112 255 1
2.33672976493835449 0.0944509357213973999 1.90543675422668457 190 153 112 255 1
2.36257243156433105 0.101766303181648254 1.97057819366455078 190 153 112 255 1
2.38756155967712402 0.111618757247924805 1.93697285652160645 190 153 112 255 1
2.30193853378295898 0.0772133544087409973 1.97302305698394775 190 153 112 255 1
2.34518814086914062 0.0900932922959327698 1.99616062641143799 190 153 112 255 1
2.43832993507385254 0.119978517293930054 2.01754999160766602 190 153 112 255 1
2.41297817230224609 0.110202908515930176 2.0159456729888916 190 153 112 255 1
2.43754744529724121 0.110797390341758728 2.07417702674865723 190 153 112 255 1
2.3404390811920166 0.0722151398658752441 2.41166877746582031 190 153 112 255 1
2.21095705032348633 0.0354756340384483337 2.23571538925170898 190 153 112 255 1
2.18207669258117676 0.0273374803364276886 2.29321169853210449 190 153 112 255 1
2.17021632194519043 0.0267910715192556381 2.25414228439331055 190 153 112 255 1
2.2298729419708252 0.0351241976022720337 2.26482319831848145 190 153 112 255 1
2.16934633255004883 0.0405459217727184296 1.95224606990814209 190 153 112 255 1
2.16430902481079102 0.0399332977831363678 1.89778256416320801 190 153 112 255 1
2.21624398231506348 0.0537510216236114502 1.97634291648864746 190 153 112 255 1
2.40010213851928711 0.156272232532501221 1.73966503143310547 190 153 112 255 1
2.19470834732055664 0.0438073799014091492 2.09307146072387695 190 153 112 255 1
2.23959541320800781 0.0511267930269241333 2.04608988761901855 190 153 112 255 1
2.2474830150604248 0.0486013367772102356 2.10063028335571289 190 153 112 255 1
2.24593186378479004 0.074405767023563385 1.79746270179748535 190 153 112 255 1
2.28974032402038574 0.077855333685874939 1.84177958965301514 190 153 112 255 1
2.23971128463745117 0.0800246819853782654 1.76543188095092773 190 153 112 255 1
2.31441450119018555 0.0824104398488998413 1.87132918834686279 190 153 112 255 1
2.12492609024047852 0.0297581516206264496 1.9192730188369751 190 153 112 255 1
2.12329316139221191 0.0236999969929456711 1.93589460849761963 190 153 112 255 1
2.24248528480529785 0.0473938807845115662 2.22960543632507324 190 153 112 255 1
2.26125717163085938 0.0566939041018486023 2.1482703685760498 190 153 112 255 1
2.24893951416015625 0.0508052147924900055 2.17880606651306152 190 153 112 255 1
2.1264491081237793 0.004331239964812994 2.38379859924316406 190 153 112 255 1
2.09085845947265625 0.00651209987699985504 2.37229776382446289 190 153 112 255 1
2.10329222679138184 0.00155497889500111341 2.32532382011413574 190 153 112 255 1
2.08751964569091797 0.00768724922090768814 2.33271241188049316 190 153 112 255 1
2.16261076927185059 0.0157863330096006393 2.3285374641418457 190 153 112 255 1
2.0985405445098877 0.00398909207433462143 2.23530793190002441 190 153 112 255 1
2.09843540191650391 0.00472305621951818466 2.18536162376403809 190 153 112 255 1
2.45875668525695801 0.109102614223957062 2.05034136772155762 190 153 112 255 1
2.46076798439025879 0.102193638682365417 2.12684202194213867 190 153 112 255 1
2.43620657920837402 0.106798931956291199 2.11879181861877441 190 153 112 255 1
2.23017024993896484 0.0590543933212757111 1.85619962215423584 190 153 112 255 1
2.1962435245513916 0.0515858866274356842 1.87304556369781494 190 153 112 255 1
2.45355725288391113 0.112837411463260651 1.98640680313110352 190 153 112 255 1
2.42875552177429199 0.123707622289657593 1.92113184928894043 190 153 112 255 1
2.43055129051208496 0.119088172912597656 1.97972166538238525 190 153 112 255 1
2.25764036178588867 0.0486099980771541595 2.28145027160644531 190 153 112 255 1
2.21004772186279297 0.0830367729067802429 1.77750551700592041 190 153 112 255 1
2.1015322208404541 -0.00165823334828019142 2.28302812576293945 190 153 112 255 1
2.13181471824645996 0.0157058741897344589 2.19289088249206543 190 153 112 255 1
2.14080357551574707 0.0141806714236736298 2.29762482643127441 190 153 112 255 1
2.4289391040802002 0.0900808051228523254 2.33154726028442383 190 153 112 255 1
2.4062049388885498 0.0910662636160850525 2.36214303970336914 190 153 112 255 1
2.44433355331420898 0.0856802165508270264 2.37367439270019531 190 153 112 255 1
2.40238642692565918 0.0852830111980438232 2.39139604568481445 190 153 112 255 1
2.30567312240600586 0.0849805548787117004 1.89532899856567383 190 153 112 255 1
2.2358088493347168 0.0673795491456985474 1.89379668235778809 190 153 112 255 1
2.22560548782348633 0.0599054768681526184 1.92307472229003906 190 153 112 255 1
2.40085959434509277 0.0997715368866920471 2.11978816986083984 190 153 112 255 1
2.36327600479125977 0.0947306305170059204 2.10811996459960938 190 153 112 255 1
2.33520841598510742 0.0839126482605934143 2.13956618309020996 190 153 112 255 1
2.13611841201782227 0.0243551209568977356 2.06227636337280273 190 153 112 255 1
2.19510889053344727 0.0414393879473209381 2.04454588890075684 190 153 112 255 1
2.1563715934753418 0.0360576063394546509 2.00505399703979492 190 153 112 255 1
2.21111416816711426 0.0499738864600658417 2.02484917640686035 190 153 112 255 1
2.1724250316619873 0.0332846753299236298 2.12898778915405273 190 153 112 255 1
2.1953728199005127 0.0377202518284320831 2.1461489200592041 190 153 112 255 1
2.17429661750793457 0.0308440569788217545 2.20914626121520996 190 153 112 255 1
2.2208106517791748 0.0397976525127887726 2.17291569709777832 190 153 112 255 1
2.27361917495727539 0.0721924453973770142 1.95445704460144043 190 153 112 255 1
2.24817419052124023 0.0599796846508979797 1.99318253993988037 190 153 112 255 1
2.36957550048828125 0.0772389620542526245 2.3683164119720459 190 153 112 255 1
2.47298550605773926 0.162307992577552795 1.75567400455474854 190 153 112 255 1
2.47473287582397461 0.17174065113067627 1.72957038879394531 190 153 112 255 1
2.42665958404541016 0.159525170922279358 1.76353192329406738 190 153 112 255 1
2.45555567741394043 0.177981570363044739 1.76016199588775635 190 153 112 255 1
2.42416691780090332 0.201867043972015381 1.74080991744995117 190 153 112 255 1
2.44579815864562988 0.179876431822776794 1.7489478588104248 190 153 112 255 1
2.40330123901367188 0.171426922082901001 1.72451364994049072 190 153 112 255 1
2.21786069869995117 0.0241928882896900177 2.39785599708557129 190 153 112 255 1
2.23811006546020508 0.0317336246371269226 2.44140744209289551 190 153 112 255 1
2.19936800003051758 0.0270315632224082947 2.44680571556091309 190 153 112 255 1
5.75291538238525391 1.39236438274383545 0.452190905809402466 190 153 112 255 1
5.69566106796264648 1.37237989902496338 0.461820453405380249 190 153 112 255 1
5.68467903137207031 1.38673019409179688 0.402545332908630371 190 153 112 255 1
5.72604703903198242 1.37893927097320557 0.453503131866455078 190 153 112 255 1
