ply
format ascii 1.0
element vertex 499
property float x
property float y
property float z
property uchar red
property uchar green
property uchar blue
property uchar alpha
property uint label
end_header
0.916108965873718262 5.45328855514526367 0.960283756256103516 145 208 203 223 33
0.927171707153320312 5.4358668327331543 0.924833714962005615 145 208 203 223 33
0.930193543434143066 5.43116521835327148 0.883967399597167969 145 208 203 223 33
0.928428590297698975 5.45166254043579102 0.887497663497924805 145 208 203 223 33
0.920276045799255371 5.46610069274902344 0.919053137302398682 145 208 203 223 33
0.908563971519470215 5.50055742263793945 0.921392381191253662 145 208 203 223 33
0.889790058135986328 5.5497441291809082 0.93078535795211792 145 208 203 223 33
0.890698373317718506 5.54434490203857422 0.91416090726852417 145 208 203 223 33
0.899844110012054443 5.48095464706420898 0.986315488815307617 145 208 203 223 33
0.85698014497756958 5.52510213851928711 1.1735687255859375 145 208 203 223 33
0.82377547025680542 5.54616212844848633 1.1318204402923584 145 208 203 223 33
0.829788506031036377 5.54187154769897461 1.19756770133972168 145 208 203 223 33
0.848291933536529541 5.52580499649047852 1.23656785488128662 145 208 203 223 33
0.810027837753295898 5.54845952987670898 1.22756874561309814 145 208 203 223 33
0.853611528873443604 5.52436017990112305 1.09780633449554443 145 208 203 223 33
0.831795215606689453 5.53815174102783203 1.06521224975585938 145 208 203 223 33
0.864897966384887695 5.52549076080322266 1.06815826892852783 145 208 203 223 33
0.821415424346923828 5.54110240936279297 1.09740638732910156 145 208 203 223 33
0.874119162559509277 5.54038619995117188 0.955039143562316895 145 208 203 223 33
0.869446814060211182 5.57872486114501953 0.926064252853393555 145 208 203 223 33
0.84842991828918457 5.54167509078979492 0.955397546291351318 145 208 203 223 33
0.850023269653320312 5.53322410583496094 1.02495253086090088 145 208 203 223 33
0.866842567920684814 5.5281672477722168 1.02242684364318848 145 208 203 223 33
0.856309056282043457 5.56682538986206055 0.955721855163574219 145 208 203 223 33
0.826772391796112061 5.55145740509033203 0.969637930393218994 145 208 203 223 33
0.888069450855255127 5.52867269515991211 0.955774247646331787 145 208 203 223 33
0.882059395313262939 5.51238822937011719 1.02600109577178955 145 208 203 223 33
0.882230758666992188 5.69146919250488281 0.982023954391479492 145 208 203 223 33
0.862509369850158691 5.71099424362182617 1.21390676498413086 145 208 203 223 33
0.903489589691162109 5.73445653915405273 0.952453851699829102 145 208 203 223 33
0.885678589344024658 5.70727109909057617 0.934790313243865967 145 208 203 223 33
0.909677326679229736 5.71600437164306641 0.926355361938476562 145 208 203 223 33
0.933338463306427002 5.68724727630615234 0.882950365543365479 145 208 203 223 33
0.931066989898681641 5.69484472274780273 0.911747515201568604 145 208 203 223 33
0.930450379848480225 5.69696235656738281 0.897732555866241455 145 208 203 223 33
0.894102275371551514 5.67928266525268555 0.906784772872924805 145 208 203 223 33
0.90183645486831665 5.68596220016479492 0.893522977828979492 145 208 203 223 33
0.881637990474700928 5.74625253677368164 1.09172749519348145 145 208 203 223 33
0.880200207233428955 5.71045303344726562 1.09193706512451172 145 208 203 223 33
0.872529149055480957 5.70029115676879883 1.11531686782836914 145 208 203 223 33
0.882186472415924072 5.7232966423034668 1.07489490509033203 145 208 203 223 33
0.895651340484619141 5.75742816925048828 1.06717097759246826 145 208 203 223 33
0.859594881534576416 5.67296171188354492 1.09497153759002686 145 208 203 223 33
0.849490761756896973 5.66467094421386719 1.11246132850646973 145 208 203 223 33
0.8311614990234375 5.59983587265014648 1.10519862174987793 145 208 203 223 33
0.847183465957641602 5.64591217041015625 1.09370183944702148 145 208 203 223 33
0.861487090587615967 5.65584182739257812 1.05415487289428711 145 208 203 223 33
0.812565505504608154 5.57168436050415039 1.06819653511047363 145 208 203 223 33
0.839760839939117432 5.61646175384521484 1.05341529846191406 145 208 203 223 33
0.808850407600402832 5.55100154876708984 1.16782522201538086 145 208 203 223 33
0.815099239349365234 5.56506967544555664 1.14681398868560791 145 208 203 223 33
0.843968629837036133 5.64288616180419922 0.976847648620605469 145 208 203 223 33
0.833568394184112549 5.63983678817749023 1.00426244735717773 145 208 203 223 33
0.862047314643859863 5.6710505485534668 0.986813724040985107 145 208 203 223 33
0.827893614768981934 5.60322666168212891 0.988231480121612549 145 208 203 223 33
0.86239314079284668 5.60372304916381836 0.96163564920425415 145 208 203 223 33
0.864259302616119385 5.61627006530761719 0.962510764598846436 145 208 203 223 33
0.835403501987457275 5.66750907897949219 0.951987504959106445 145 208 203 223 33
0.836952745914459229 5.62259864807128906 1.03372621536254883 145 208 203 223 33
0.855955839157104492 5.65517997741699219 1.01535880565643311 145 208 203 223 33
0.861657142639160156 5.68208551406860352 1.03456902503967285 145 208 203 223 33
0.885642051696777344 5.73447847366333008 1.14910328388214111 145 208 203 223 33
0.80991971492767334 5.56068897247314453 1.18966758251190186 145 208 203 223 33
0.86583942174911499 5.60138893127441406 0.927760124206542969 145 208 203 223 33
0.822322070598602295 5.66289377212524414 0.922067403793334961 145 208 203 223 33
0.833461582660675049 5.6438751220703125 0.92480933666229248 145 208 203 223 33
0.84975433349609375 5.63393354415893555 0.946146607398986816 145 208 203 223 33
0.846990108489990234 5.63587474822998047 0.911455690860748291 145 208 203 223 33
0.837638199329376221 5.65095233917236328 0.900514721870422363 145 208 203 223 33
0.832338571548461914 5.6752476692199707 0.902925372123718262 145 208 203 223 33
0.903262794017791748 5.75996971130371094 0.944367349147796631 145 208 203 223 33
0.822289228439331055 5.58912801742553711 1.01341068744659424 145 208 203 223 33
0.812036693096160889 5.55954504013061523 1.10431587696075439 145 208 203 223 33
0.807790040969848633 5.56351470947265625 1.03371930122375488 145 208 203 223 33
0.902761280536651611 5.77352714538574219 1.0206071138381958 145 208 203 223 33
0.873311758041381836 5.74808120727539062 1.20721101760864258 145 208 203 223 33
0.837115764617919922 5.59583282470703125 0.935860693454742432 145 208 203 223 33
0.921243429183959961 5.84975576400756836 1.20637142658233643 145 208 203 223 33
0.827868282794952393 5.61212444305419922 1.20191526412963867 145 208 203 223 33
0.886410355567932129 5.69620800018310547 0.957915723323822021 145 208 203 223 33
0.892278611660003662 5.73707485198974609 0.983964204788208008 145 208 203 223 33
0.874192178249359131 5.68009138107299805 1.00595605373382568 145 208 203 223 33
0.898683309555053711 5.70665979385375977 0.988763153553009033 145 208 203 223 33
0.899038732051849365 5.7494664192199707 1.00483715534210205 145 208 203 223 33
0.904953896999359131 5.73012447357177734 0.965464174747467041 145 208 203 223 33
0.899929404258728027 5.7377934455871582 1.04303073883056641 145 208 203 223 33
0.894504010677337646 5.7706599235534668 1.11385691165924072 145 208 203 223 33
0.889796793460845947 5.78489494323730469 1.17990851402282715 145 208 203 223 33
0.887024402618408203 5.78570652008056641 1.15701675415039062 145 208 203 223 33
0.885167598724365234 5.75190496444702148 1.18251717090606689 145 208 203 223 33
0.869477629661560059 5.67412042617797852 0.897608637809753418 145 208 203 223 33
0.872887372970581055 5.67911005020141602 0.918785393238067627 145 208 203 223 33
0.853405177593231201 5.68162059783935547 0.937000870704650879 145 208 203 223 33
0.880126833915710449 5.79062318801879883 1.20925462245941162 145 208 203 223 33
0.84053725004196167 5.59540987014770508 0.968290090560913086 145 208 203 223 33
0.819512009620666504 5.55917596817016602 0.985022187232971191 145 208 203 223 33
0.861057281494140625 5.69118928909301758 1.18600916862487793 145 208 203 223 33
0.862604856491088867 5.69149255752563477 1.13100790977478027 145 208 203 223 33
0.845269858837127686 5.64503812789916992 1.13505291938781738 145 208 203 223 33
0.854268491268157959 5.66122722625732422 1.14442682266235352 145 208 203 223 33
0.847128391265869141 5.6635279655456543 1.20275497436523438 145 208 203 223 33
0.833832383155822754 5.59886264801025391 1.13961613178253174 145 208 203 223 33
0.826995730400085449 5.60833644866943359 1.16966617107391357 145 208 203 223 33
0.842820465564727783 5.65972423553466797 1.17140078544616699 145 208 203 223 33
0.388159781694412231 5.76761484146118164 1.29167568683624268 145 208 203 223 33
0.373082607984542847 5.87850522994995117 1.27462089061737061 145 208 203 223 33
0.342880666255950928 5.88656949996948242 1.25618112087249756 145 208 203 223 33
0.384900957345962524 5.8557429313659668 1.27581298351287842 145 208 203 223 33
0.356342107057571411 5.87031888961791992 1.24278593063354492 145 208 203 223 33
0.401433944702148438 5.83009624481201172 1.24844861030578613 145 208 203 223 33
0.464060068130493164 5.78512859344482422 1.24113631248474121 145 208 203 223 33
0.478103131055831909 5.75969266891479492 1.27215814590454102 145 208 203 223 33
0.446608185768127441 5.78885936737060547 1.27759313583374023 145 208 203 223 33
0.425731301307678223 5.81161975860595703 1.25330555438995361 145 208 203 223 33
0.498255014419555664 5.50886726379394531 1.28112006187438965 145 208 203 223 33
0.47112157940864563 5.52206182479858398 1.28891682624816895 145 208 203 223 33
0.512411057949066162 5.56795835494995117 1.25399434566497803 145 208 203 223 33
0.502536594867706299 5.58631372451782227 1.24861085414886475 145 208 203 223 33
0.503885626792907715 5.55771732330322266 1.2720797061920166 145 208 203 223 33
0.543387651443481445 5.55431699752807617 1.26218187808990479 145 208 203 223 33
0.43616032600402832 5.56288576126098633 1.29079222679138184 145 208 203 223 33
0.446049362421035767 5.58204364776611328 1.27504074573516846 145 208 203 223 33
0.532475054264068604 5.74660634994506836 1.23594224452972412 145 208 203 223 33
0.500395417213439941 5.76718330383300781 1.23170685768127441 145 208 203 223 33
0.432981938123703003 5.61295843124389648 1.25429689884185791 145 208 203 223 33
0.552647709846496582 5.60012197494506836 1.24574339389801025 145 208 203 223 33
0.480554699897766113 5.63740921020507812 1.25162279605865479 145 208 203 223 33
0.457869112491607666 5.67558193206787109 1.26121211051940918 145 208 203 223 33
0.387557476758956909 5.62501049041748047 1.26448023319244385 145 208 203 223 33
0.395856678485870361 5.652435302734375 1.26714432239532471 145 208 203 223 33
0.390452653169631958 5.59465408325195312 1.29301655292510986 145 208 203 223 33
0.343608200550079346 5.63091516494750977 1.28727686405181885 145 208 203 223 33
0.383220523595809937 5.94723081588745117 1.27419531345367432 145 208 203 223 33
0.365130990743637085 5.97445011138916016 1.26498734951019287 145 208 203 223 33
0.353779077529907227 5.93657779693603516 1.26109874248504639 145 208 203 223 33
0.305691152811050415 5.66890335083007812 1.30475473403930664 145 208 203 223 33
0.546505868434906006 5.74595308303833008 1.23527133464813232 145 208 203 223 33
0.516881763935089111 5.69231128692626953 1.25627458095550537 145 208 203 223 33
0.460498034954071045 5.73554420471191406 1.27181029319763184 145 208 203 223 33
0.435857921838760376 5.5964202880859375 1.2584984302520752 145 208 203 223 33
0.451620906591415405 5.71021604537963867 1.26464307308197021 145 208 203 223 33
0.415929019451141357 5.79718112945556641 1.28448224067687988 145 208 203 223 33
0.420067429542541504 5.81389999389648438 1.27247238159179688 145 208 203 223 33
0.390318721532821655 5.69604682922363281 1.27736830711364746 145 208 203 223 33
0.325180947780609131 5.67691898345947266 1.29483306407928467 145 208 203 223 33
0.348143905401229858 5.73039531707763672 1.29438185691833496 145 208 203 223 33
0.37479013204574585 5.74816751480102539 1.2922217845916748 145 208 203 223 33
0.78439021110534668 5.4488835334777832 1.24812030792236328 145 208 203 223 33
0.72738271951675415 5.46433115005493164 1.26329183578491211 145 208 203 223 33
0.774624347686767578 5.48458766937255859 1.25614500045776367 145 208 203 223 33
0.798024117946624756 5.51338911056518555 1.2487640380859375 145 208 203 223 33
0.8717154860496521 5.51043319702148438 1.08153772354125977 145 208 203 223 33
0.880606472492218018 5.49916315078735352 1.04490959644317627 145 208 203 223 33
0.809749722480773926 5.45285987854003906 1.08072519302368164 145 208 203 223 33
0.807976007461547852 5.4640045166015625 1.0529935359954834 145 208 203 223 33
0.858420670032501221 5.47649574279785156 1.03498411178588867 145 208 203 223 33
0.819220900535583496 5.48576068878173828 1.09017264842987061 145 208 203 223 33
0.862245500087738037 5.49371862411499023 1.11245155334472656 145 208 203 223 33
0.822904825210571289 5.47871780395507812 1.11619853973388672 145 208 203 223 33
0.817868828773498535 5.48322963714599609 1.05599057674407959 145 208 203 223 33
0.864534139633178711 5.49289894104003906 1.0712655782699585 145 208 203 223 33
0.847171902656555176 5.49628782272338867 1.09325170516967773 145 208 203 223 33
0.905559182167053223 5.43212652206420898 0.939774930477142334 145 208 203 223 33
0.905212163925170898 5.4153437614440918 0.910923540592193604 145 208 203 223 33
0.664942562580108643 5.46027994155883789 1.26231265068054199 145 208 203 223 33
0.690037250518798828 5.47822046279907227 1.26234018802642822 145 208 203 223 33
0.660989582538604736 5.48593711853027344 1.25534164905548096 145 208 203 223 33
0.883275687694549561 5.46155261993408203 0.982882142066955566 145 208 203 223 33
0.828310847282409668 5.47284269332885742 1.03608667850494385 145 208 203 223 33
0.825909912586212158 5.46866655349731445 1.01492011547088623 145 208 203 223 33
0.888250768184661865 5.47605085372924805 1.01265811920166016 145 208 203 223 33
0.854762136936187744 5.44821739196777344 0.962942540645599365 145 208 203 223 33
0.833037614822387695 5.45837545394897461 0.977554976940155029 145 208 203 223 33
0.834456026554107666 5.45959234237670898 0.998491942882537842 145 208 203 223 33
0.807175099849700928 5.44304370880126953 1.22438037395477295 145 208 203 223 33
0.809647917747497559 5.485595703125 1.23546421527862549 145 208 203 223 33
0.55474698543548584 5.49913740158081055 1.26866066455841064 145 208 203 223 33
0.808798611164093018 5.44217252731323242 1.18340504169464111 145 208 203 223 33
0.866315543651580811 5.49755430221557617 1.14137148857116699 145 208 203 223 33
0.819979310035705566 5.47768592834472656 1.21243178844451904 145 208 203 223 33
0.823195219039916992 5.47374534606933594 1.15076208114624023 145 208 203 223 33
0.815719723701477051 5.46083545684814453 1.11930608749389648 145 208 203 223 33
0.852908611297607422 5.4875798225402832 1.15967798233032227 145 208 203 223 33
0.849464178085327148 5.72631072998046875 1.23449897766113281 145 208 203 223 33
0.856500983238220215 5.75642728805541992 1.23317527770996094 145 208 203 223 33
0.793398737907409668 5.67798709869384766 1.24443495273590088 145 208 203 223 33
0.821956515312194824 5.75107765197753906 1.2468341588973999 145 208 203 223 33
0.965502381324768066 6.31861782073974609 1.25902390480041504 145 208 203 223 33
0.774893581867218018 6.1971282958984375 1.23072934150695801 145 208 203 223 33
0.745577335357666016 6.23711347579956055 1.22452402114868164 145 208 203 223 33
0.81179201602935791 6.23514127731323242 1.23246181011199951 145 208 203 223 33
0.77349168062210083 6.17498493194580078 1.22979974746704102 145 208 203 223 33
0.752659857273101807 6.19521474838256836 1.22618460655212402 145 208 203 223 33
0.878107666969299316 6.17113018035888672 1.24516034126281738 145 208 203 223 33
0.935625672340393066 6.15660858154296875 1.24151337146759033 145 208 203 223 33
0.894825577735900879 6.19907283782958984 1.24183297157287598 145 208 203 223 33
0.974056363105773926 6.19887018203735352 1.23435842990875244 145 208 203 223 33
0.914123952388763428 6.22638797760009766 1.24169325828552246 145 208 203 223 33
0.811489641666412354 6.04813241958618164 1.25218045711517334 145 208 203 223 33
0.747228920459747314 6.09018802642822266 1.22858035564422607 145 208 203 223 33
0.781614601612091064 6.00201225280761719 1.25626611709594727 145 208 203 223 33
0.77767103910446167 6.02225589752197266 1.25269842147827148 145 208 203 223 33
0.736695945262908936 6.05005455017089844 1.22658181190490723 145 208 203 223 33
0.913802981376647949 6.11728858947753906 1.24530589580535889 145 208 203 223 33
0.964780271053314209 6.07043933868408203 1.23341310024261475 145 208 203 223 33
0.954775750637054443 6.01360416412353516 1.2352745532989502 145 208 203 223 33
0.854926824569702148 5.8428034782409668 1.24376249313354492 145 208 203 223 33
0.803043603897094727 5.87416315078735352 1.25286555290222168 145 208 203 223 33
0.565657556056976318 5.80342292785644531 1.22574377059936523 145 208 203 223 33
0.606053352355957031 5.80458498001098633 1.22744488716125488 145 208 203 223 33
0.872025012969970703 5.88771915435791016 1.24617743492126465 145 208 203 223 33
0.884642958641052246 5.94020223617553711 1.24552452564239502 145 208 203 223 33
0.744189620018005371 5.77339458465576172 1.25734841823577881 145 208 203 223 33
0.755294680595397949 5.70129489898681641 1.25214552879333496 145 208 203 223 33
0.717381060123443604 5.63931798934936523 1.25031435489654541 145 208 203 223 33
0.615668296813964844 5.64057016372680664 1.25739991664886475 145 208 203 223 33
0.534897565841674805 5.66540193557739258 1.2539595365524292 145 208 203 223 33
0.578725814819335938 5.64288234710693359 1.25177502632141113 145 208 203 223 33
0.592941582202911377 5.67747879028320312 1.25129508972167969 145 208 203 223 33
0.623536527156829834 5.69695758819580078 1.24407017230987549 145 208 203 223 33
0.588976562023162842 5.72955417633056641 1.23601233959197998 145 208 203 223 33
0.637154221534729004 5.72475433349609375 1.24053347110748291 145 208 203 223 33
0.566630005836486816 5.77831792831420898 1.2256920337677002 145 208 203 223 33
0.866061508655548096 5.52194690704345703 1.12309944629669189 145 208 203 223 33
0.864184975624084473 5.51118755340576172 1.16888225078582764 145 208 203 223 33
0.730404317378997803 6.3342747688293457 1.22003138065338135 145 208 203 223 33
0.690886855125427246 6.32582569122314453 1.21132314205169678 145 208 203 223 33
0.727985739707946777 6.35288143157958984 1.22804045677185059 145 208 203 223 33
0.75400841236114502 6.37299633026123047 1.22824573516845703 145 208 203 223 33
0.793058335781097412 6.32752227783203125 1.23649084568023682 145 208 203 223 33
0.763726234436035156 6.34658908843994141 1.23672115802764893 145 208 203 223 33
0.619595229625701904 5.75196933746337891 1.23731899261474609 145 208 203 223 33
0.544730901718139648 5.54369878768920898 1.2665565013885498 145 208 203 223 33
0.615066289901733398 5.52244663238525391 1.26213705539703369 145 208 203 223 33
0.602827548980712891 5.53820276260375977 1.2574847936630249 145 208 203 223 33
0.630751609802246094 5.55388355255126953 1.25737190246582031 145 208 203 223 33
0.555240988731384277 5.57121944427490234 1.24353182315826416 145 208 203 223 33
0.63019263744354248 5.58009576797485352 1.25117230415344238 145 208 203 223 33
0.589596807956695557 5.50267601013183594 1.2621082067489624 145 208 203 223 33
0.836588382720947266 6.20060920715332031 1.23860406875610352 145 208 203 223 33
0.813545346260070801 6.08030414581298828 1.2467041015625 145 208 203 223 33
0.855863094329833984 6.09059333801269531 1.2530667781829834 145 208 203 223 33
0.874143600463867188 6.13111352920532227 1.24858474731445312 145 208 203 223 33
0.815459072589874268 6.11996173858642578 1.24187242984771729 145 208 203 223 33
0.823652565479278564 6.1628575325012207 1.2388911247253418 145 208 203 223 33
0.800964236259460449 6.3600468635559082 1.23621547222137451 145 208 203 223 33
0.864950239658355713 6.33579397201538086 1.2367624044418335 145 208 203 223 33
0.801851570606231689 6.33527612686157227 1.25222504138946533 145 208 203 223 33
0.845743834972381592 6.35904836654663086 1.22596120834350586 145 208 203 223 33
0.836368262767791748 6.31691503524780273 1.25654971599578857 145 208 203 223 33
0.784672021865844727 5.5437321662902832 1.25338006019592285 145 208 203 223 33
0.861334264278411865 5.52596282958984375 1.22308158874511719 145 208 203 223 33
0.794728279113769531 5.57106208801269531 1.22302091121673584 145 208 203 223 33
0.843527674674987793 5.50001859664916992 1.23149144649505615 145 208 203 223 33
0.774825453758239746 6.11974287033081055 1.23114824295043945 145 208 203 223 33
0.73308175802230835 6.16025781631469727 1.22118782997131348 145 208 203 223 33
0.988312065601348877 6.13344144821166992 1.22448956966400146 145 208 203 223 33
0.74881356954574585 5.55142354965209961 1.23845076560974121 145 208 203 223 33
0.775152146816253662 5.56789779663085938 1.23226213455200195 145 208 203 223 33
0.765423595905303955 5.52085256576538086 1.2580108642578125 145 208 203 223 33
0.703980982303619385 5.55993175506591797 1.24889183044433594 145 208 203 223 33
0.713773965835571289 5.71451568603515625 1.25420773029327393 145 208 203 223 33
0.672474324703216553 5.71623468399047852 1.25051248073577881 145 208 203 223 33
0.537456214427947998 5.71553421020507812 1.25763797760009766 145 208 203 223 33
0.850671947002410889 5.99384832382202148 1.25412106513977051 145 208 203 223 33
0.833000659942626953 6.02135324478149414 1.25558972358703613 145 208 203 223 33
0.72985386848449707 5.50204706192016602 1.26339352130889893 145 208 203 223 33
0.759413480758666992 5.80359363555908203 1.25532686710357666 145 208 203 223 33
0.808825492858886719 5.83696651458740234 1.25205600261688232 145 208 203 223 33
0.828129410743713379 5.77428913116455078 1.24566471576690674 145 208 203 223 33
0.869241833686828613 5.80594587326049805 1.23386335372924805 145 208 203 223 33
0.7967415452003479 5.61420965194702148 1.23583424091339111 145 208 203 223 33
0.769094765186309814 5.65100240707397461 1.2452082633972168 145 208 203 223 33
0.748770177364349365 5.60663080215454102 1.24525845050811768 145 208 203 223 33
0.92236173152923584 5.8932185173034668 1.2235797643661499 145 208 203 223 33
0.914602458477020264 5.92197036743164062 1.23511660099029541 145 208 203 223 33
0.899222731590270996 5.85425996780395508 1.23321115970611572 145 208 203 223 33
0.824030637741088867 5.63216590881347656 1.22218191623687744 145 208 203 223 33
0.814928889274597168 5.65359401702880859 1.23337852954864502 145 208 203 223 33
0.931898534297943115 6.35968255996704102 1.24404561519622803 145 208 203 223 33
0.900440633296966553 6.35122966766357422 1.23555397987365723 145 208 203 223 33
0.929113507270812988 6.33538818359375 1.24249386787414551 145 208 203 223 33
0.890815973281860352 6.31896686553955078 1.2439277172088623 145 208 203 223 33
0.847168207168579102 6.26938438415527344 1.23094141483306885 145 208 203 223 33
0.815771996974945068 6.25467300415039062 1.22964704036712646 145 208 203 223 33
0.848428785800933838 6.29416561126708984 1.23580062389373779 145 208 203 223 33
0.794402599334716797 6.26401185989379883 1.22454404830932617 145 208 203 223 33
0.890968382358551025 6.02535009384155273 1.25112593173980713 145 208 203 223 33
0.90409243106842041 6.09310722351074219 1.2494356632232666 145 208 203 223 33
0.932333111763000488 6.05029153823852539 1.24475133419036865 145 208 203 223 33
0.914726614952087402 5.98206043243408203 1.24462807178497314 145 208 203 223 33
0.784597396850585938 6.30524873733520508 1.2260429859161377 145 208 203 223 33
0.733491063117980957 6.287353515625 1.21721935272216797 145 208 203 223 33
0.769112706184387207 6.28423881530761719 1.21866166591644287 145 208 203 223 33
0.700344383716583252 6.30744361877441406 1.20938014984130859 145 208 203 223 33
0.671561539173126221 5.65944385528564453 1.25114548206329346 145 208 203 223 33
0.680963039398193359 5.62718105316162109 1.25571548938751221 145 208 203 223 33
0.648627340793609619 5.6460261344909668 1.2554013729095459 145 208 203 223 33
0.886946797370910645 6.30614089965820312 1.25505292415618896 145 208 203 223 33
0.889326333999633789 6.2610325813293457 1.22875070571899414 145 208 203 223 33
0.927376687526702881 6.25884580612182617 1.22205483913421631 145 208 203 223 33
0.943174183368682861 6.3130946159362793 1.25458455085754395 145 208 203 223 33
0.936911344528198242 6.24439287185668945 1.21981537342071533 145 208 203 223 33
0.705252110958099365 5.53818845748901367 1.25800549983978271 145 208 203 223 33
0.668545544147491455 5.53504467010498047 1.257027268409729 145 208 203 223 33
0.643613219261169434 5.59653186798095703 1.25403714179992676 145 208 203 223 33
0.669292032718658447 6.38975858688354492 1.21355915069580078 145 208 203 223 33
0.640232384204864502 6.36848258972167969 1.2058868408203125 145 208 203 223 33
0.70177614688873291 6.3827366828918457 1.21748065948486328 145 208 203 223 33
1.00478875637054443 6.16672468185424805 1.22292685508728027 145 208 203 223 33
0.959047794342041016 6.11732673645019531 1.23611247539520264 145 208 203 223 33
0.750388681888580322 5.8786616325378418 1.25646102428436279 145 208 203 223 33
0.801361322402954102 5.94118404388427734 1.25604856014251709 145 208 203 223 33
0.978159904479980469 6.08705759048461914 1.02006399631500244 145 208 203 223 33
1.00017869472503662 6.07582521438598633 0.991061568260192871 145 208 203 223 33
0.995959043502807617 6.12715244293212891 1.01160037517547607 145 208 203 223 33
1.00887691974639893 6.14487314224243164 1.00229036808013916 145 208 203 223 33
1.00504398345947266 6.11991119384765625 0.962255537509918213 145 208 203 223 33
0.989226818084716797 6.10533523559570312 0.975829362869262695 145 208 203 223 33
0.995357692241668701 6.13720273971557617 0.975741326808929443 145 208 203 223 33
1.00156605243682861 6.08234453201293945 0.968868672847747803 145 208 203 223 33
0.985687851905822754 6.03302669525146484 1.05548334121704102 145 208 203 223 33
0.98842620849609375 6.07356357574462891 1.04469799995422363 145 208 203 223 33
0.981250882148742676 6.03602313995361328 1.0892103910446167 145 208 203 223 33
0.97414696216583252 6.01469564437866211 1.07689881324768066 145 208 203 223 33
1.0009458065032959 6.06770896911621094 1.07824981212615967 145 208 203 223 33
0.981867671012878418 6.02588319778442383 0.931424081325531006 145 208 203 223 33
1.00801694393157959 6.02347612380981445 0.934981048107147217 145 208 203 223 33
0.987954258918762207 6.0454106330871582 0.929736793041229248 145 208 203 223 33
1.019767165184021 6.03585338592529297 0.943992555141448975 145 208 203 223 33
0.973910987377166748 6.05456924438476562 0.938217639923095703 145 208 203 223 33
1.023842453956604 5.98776483535766602 0.970841407775878906 145 208 203 223 33
0.994081735610961914 6.05931901931762695 0.949126780033111572 145 208 203 223 33
0.95951467752456665 6.07976198196411133 0.92696535587310791 145 208 203 223 33
0.968941152095794678 6.05126523971557617 0.920917868614196777 145 208 203 223 33
0.984327733516693115 6.13505268096923828 1.04727232456207275 145 208 203 223 33
0.98031008243560791 6.08745718002319336 1.11256265640258789 145 208 203 223 33
1.00160598754882812 6.11096429824829102 1.11115682125091553 145 208 203 223 33
0.98876953125 6.13512802124023438 1.06934738159179688 145 208 203 223 33
1.00458991527557373 6.08985090255737305 1.07802438735961914 145 208 203 223 33
0.990569889545440674 6.11439752578735352 1.04176175594329834 145 208 203 223 33
0.991810262203216553 6.13360261917114258 1.09595596790313721 145 208 203 223 33
0.982641637325286865 6.09717655181884766 1.0470428466796875 145 208 203 223 33
0.977950751781463623 6.04083347320556641 1.20805871486663818 145 208 203 223 33
0.961351275444030762 6.00537872314453125 1.21772515773773193 145 208 203 223 33
0.926521539688110352 6.20973634719848633 0.863803327083587646 145 208 203 223 33
0.961026489734649658 6.2139134407043457 0.87364804744720459 145 208 203 223 33
0.953202128410339355 5.97841262817382812 1.17927038669586182 145 208 203 223 33
1.039528489112854 6.01851844787597656 0.975229203701019287 145 208 203 223 33
0.931411147117614746 5.90292596817016602 1.08743011951446533 145 208 203 223 33
0.941188812255859375 5.9399724006652832 1.11270201206207275 145 208 203 223 33
1.02943885326385498 5.96768712997436523 0.926398098468780518 145 208 203 223 33
1.01876115798950195 5.96657848358154297 0.948008835315704346 145 208 203 223 33
1.00574934482574463 6.00028324127197266 0.947758913040161133 145 208 203 223 33
1.00967168807983398 5.95031833648681641 0.892927706241607666 145 208 203 223 33
1.0115044116973877 5.92169904708862305 0.929106295108795166 145 208 203 223 33
1.0264432430267334 5.93270635604858398 0.920017719268798828 145 208 203 223 33
0.978471994400024414 5.90821504592895508 0.933067500591278076 145 208 203 223 33
1.0276799201965332 5.94986391067504883 0.969568431377410889 145 208 203 223 33
0.954068839550018311 5.88247489929199219 0.969590723514556885 145 208 203 223 33
0.912726163864135742 5.84656524658203125 1.03477835655212402 145 208 203 223 33
0.936357796192169189 5.84293317794799805 0.969493567943572998 145 208 203 223 33
0.93444591760635376 5.86639738082885742 0.993298053741455078 145 208 203 223 33
0.916588127613067627 5.86606264114379883 1.02004671096801758 145 208 203 223 33
0.947643280029296875 5.85627222061157227 0.960147380828857422 145 208 203 223 33
0.908563375473022461 6.25335168838500977 0.873246550559997559 145 208 203 223 33
0.912105679512023926 6.24582052230834961 0.941889524459838867 145 208 203 223 33
0.939335286617279053 6.24431419372558594 0.902392208576202393 145 208 203 223 33
0.966547012329101562 6.22207164764404297 0.946456491947174072 145 208 203 223 33
0.907062828540802002 5.85000228881835938 1.13221395015716553 145 208 203 223 33
0.931704819202423096 5.90089702606201172 1.12385904788970947 145 208 203 223 33
0.924454808235168457 5.89168691635131836 1.13761353492736816 145 208 203 223 33
0.910941064357757568 5.84976291656494141 1.11422204971313477 145 208 203 223 33
0.913545548915863037 5.87503433227539062 1.17251348495483398 145 208 203 223 33
0.9358634352684021 5.79570341110229492 0.942306876182556152 145 208 203 223 33
0.980254530906677246 5.82831525802612305 0.917752921581268311 145 208 203 223 33
0.913980305194854736 5.86147928237915039 1.09125566482543945 145 208 203 223 33
0.936053812503814697 5.88911724090576172 1.04600322246551514 145 208 203 223 33
0.922557651996612549 5.87143516540527344 1.05286455154418945 145 208 203 223 33
0.921216130256652832 5.8805241584777832 1.10277855396270752 145 208 203 223 33
0.951648056507110596 6.23101425170898438 1.18838369846343994 145 208 203 223 33
0.944865584373474121 6.22859716415405273 1.14506745338439941 145 208 203 223 33
0.995109319686889648 6.19482660293579102 1.18102657794952393 145 208 203 223 33
0.984384655952453613 6.19929122924804688 1.13210809230804443 145 208 203 223 33
0.989108264446258545 6.19079351425170898 1.15457415580749512 145 208 203 223 33
1.00919854640960693 6.158416748046875 1.13404667377471924 145 208 203 223 33
0.993752956390380859 6.18393659591674805 1.11871397495269775 145 208 203 223 33
0.917402923107147217 6.25154781341552734 0.974416673183441162 145 208 203 223 33
0.903662919998168945 6.25350809097290039 1.00047612190246582 145 208 203 223 33
0.924837052822113037 5.83788490295410156 0.93972325325012207 145 208 203 223 33
0.948906302452087402 5.84715652465820312 0.926281869411468506 145 208 203 223 33
1.00252056121826172 6.16237735748291016 1.05092370510101318 145 208 203 223 33
0.986558794975280762 6.19238948822021484 1.08525609970092773 145 208 203 223 33
0.982528269290924072 6.16403341293334961 1.07993459701538086 145 208 203 223 33
0.815212666988372803 6.26844167709350586 0.887772262096405029 145 208 203 223 33
0.867442548274993896 6.25616455078125 0.885502457618713379 145 208 203 223 33
0.847578227519989014 6.24046087265014648 0.903749406337738037 145 208 203 223 33
0.860647022724151611 6.24641990661621094 0.86705094575881958 145 208 203 223 33
0.976456165313720703 6.19712543487548828 0.985712051391601562 145 208 203 223 33
0.94835430383682251 6.22431802749633789 0.963835835456848145 145 208 203 223 33
0.98925405740737915 6.19673347473144531 1.00326335430145264 145 208 203 223 33
0.972903072834014893 6.21150684356689453 1.03338146209716797 145 208 203 223 33
1.00163078308105469 6.17119932174682617 1.02908456325531006 145 208 203 223 33
1.00071275234222412 6.1732172966003418 0.98622053861618042 145 208 203 223 33
0.994928538799285889 6.17036914825439453 0.972204804420471191 145 208 203 223 33
0.95818561315536499 6.22128534317016602 0.992985129356384277 145 208 203 223 33
1.00186586380004883 6.165802001953125 0.949045181274414062 145 208 203 223 33
0.941245853900909424 6.20322561264038086 0.932182013988494873 145 208 203 223 33
0.965225815773010254 6.21717166900634766 0.910018503665924072 145 208 203 223 33
0.983792662620544434 6.19902706146240234 0.950926840305328369 145 208 203 223 33
0.979600727558135986 6.2104945182800293 0.926335036754608154 145 208 203 223 33
0.967238724231719971 6.00002527236938477 1.12578809261322021 145 208 203 223 33
0.973589479923248291 6.01183319091796875 1.16135001182556152 145 208 203 223 33
0.982437372207641602 6.04476642608642578 1.17710757255554199 145 208 203 223 33
0.984205782413482666 6.08720064163208008 1.16108131408691406 145 208 203 223 33
0.971412599086761475 6.06811857223510742 1.14676022529602051 145 208 203 223 33
0.974605798721313477 6.04367256164550781 1.10903072357177734 145 208 203 223 33
0.92908775806427002 6.24312448501586914 1.0404975414276123 145 208 203 223 33
0.953190386295318604 6.22511005401611328 1.11072885990142822 145 208 203 223 33
0.968385577201843262 5.86174297332763672 0.915457248687744141 145 208 203 223 33
0.966020107269287109 5.87189197540283203 0.939483284950256348 145 208 203 223 33
0.952038943767547607 5.90772771835327148 0.971503973007202148 145 208 203 223 33
0.970320582389831543 5.91565418243408203 0.958897769451141357 145 208 203 223 33
0.995497703552246094 5.88366222381591797 0.887511730194091797 145 208 203 223 33
1.02897191047668457 5.91916418075561523 0.88902592658996582 145 208 203 223 33
0.950238883495330811 5.88051891326904297 0.948803961277008057 145 208 203 223 33
0.963092982769012451 5.87804365158081055 0.899140477180480957 145 208 203 223 33
0.984090626239776611 5.88371944427490234 0.908853054046630859 145 208 203 223 33
1.00079154968261719 6.11186695098876953 1.20800447463989258 145 208 203 223 33
0.9927101731300354 6.08573007583618164 1.20820820331573486 145 208 203 223 33
0.953519463539123535 5.89904975891113281 1.03914785385131836 145 208 203 223 33
0.973647594451904297 5.91062021255493164 0.997200727462768555 145 208 203 223 33
0.959179997444152832 5.88482332229614258 0.991798520088195801 145 208 203 223 33
0.933262765407562256 5.9365386962890625 1.22231364250183105 145 208 203 223 33
0.926287949085235596 5.90308904647827148 1.19958841800689697 145 208 203 223 33
0.939959287643432617 5.97552251815795898 1.233054518699646 145 208 203 223 33
0.933769702911376953 5.93690919876098633 1.17986142635345459 145 208 203 223 33
0.923888981342315674 6.21939802169799805 0.893847525119781494 145 208 203 223 33
0.92054373025894165 6.21434640884399414 0.915831863880157471 145 208 203 223 33
0.904799163341522217 6.22690486907958984 0.889402866363525391 145 208 203 223 33
0.949240922927856445 6.22818326950073242 0.893524587154388428 145 208 203 223 33
0.892800748348236084 6.22703647613525391 0.906053900718688965 145 208 203 223 33
0.935682833194732666 5.83141851425170898 0.917321205139160156 145 208 203 223 33
0.923492193222045898 5.78301620483398438 0.942134201526641846 145 208 203 223 33
0.895406365394592285 5.83030557632446289 0.9361000657081604 145 208 203 223 33
0.923420310020446777 5.82639789581298828 0.993564844131469727 145 208 203 223 33
0.902207016944885254 5.76564264297485352 0.99178236722946167 145 208 203 223 33
0.91335296630859375 5.78523683547973633 0.996483266353607178 145 208 203 223 33
0.930526614189147949 5.77997875213623047 0.971179187297821045 145 208 203 223 33
0.894459307193756104 5.81832790374755859 1.02859592437744141 145 208 203 223 33
0.909850835800170898 5.80115985870361328 0.987209320068359375 145 208 203 223 33
0.929660916328430176 5.82102060317993164 0.963903427124023438 145 208 203 223 33
0.961089253425598145 6.20330429077148438 0.857228279113769531 145 208 203 223 33
1.00295937061309814 6.16376733779907227 1.16677343845367432 145 208 203 223 33
1.00004589557647705 6.12441873550415039 1.18373978137969971 145 208 203 223 33
1.0025639533996582 6.11427450180053711 1.15047204494476318 145 208 203 223 33
0.861118435859680176 6.23371267318725586 0.897344410419464111 145 208 203 223 33
0.872659385204315186 6.23449039459228516 0.87486875057220459 145 208 203 223 33
0.829732537269592285 6.26206874847412109 0.870664000511169434 145 208 203 223 33
0.939193129539489746 6.23045587539672852 1.01721680164337158 145 208 203 223 33
0.912304520606994629 5.76010894775390625 0.971093297004699707 145 208 203 223 33
0.989779412746429443 6.14891862869262695 0.950051367282867432 145 208 203 223 33
0.957131445407867432 5.95834541320800781 1.07164382934570312 145 208 203 223 33
0.972601532936096191 5.98476839065551758 1.09072613716125488 145 208 203 223 33
0.977911591529846191 5.99185609817504883 1.04517567157745361 145 208 203 223 33
0.955101251602172852 5.93179512023925781 1.05786013603210449 145 208 203 223 33
0.980334222316741943 5.92003202438354492 1.02877044677734375 145 208 203 223 33
0.961904942989349365 5.95336389541625977 1.03841376304626465 145 208 203 223 33
0.954414665699005127 5.96418237686157227 1.11506223678588867 145 208 203 223 33
0.95108342170715332 5.95473432540893555 1.14927256107330322 145 208 203 223 33
0.91765284538269043 6.25375509262084961 1.14394688606262207 145 208 203 223 33
0.920543015003204346 6.25491571426391602 1.17782759666442871 145 208 203 223 33
0.91182476282119751 6.25673770904541016 1.10789954662322998 145 208 203 223 33
0.896733283996582031 5.82060623168945312 1.10112416744232178 145 208 203 223 33
0.896784126758575439 5.83213472366333008 1.06310343742370605 145 208 203 223 33
0.902403950691223145 5.78672266006469727 1.08467519283294678 145 208 203 223 33
0.887481391429901123 5.78774785995483398 1.03835666179656982 145 208 203 223 33
0.943791389465332031 6.24799728393554688 1.2006603479385376 145 208 203 223 33
0.889042377471923828 5.81191062927246094 1.13058388233184814 145 208 203 223 33
0.980981051921844482 5.93451547622680664 0.977380454540252686 145 208 203 223 33
0.989420473575592041 5.94974279403686523 0.984087049961090088 145 208 203 223 33
0.97841644287109375 5.95130348205566406 1.01512038707733154 145 208 203 223 33
1.00871765613555908 5.96649312973022461 0.98380887508392334 145 208 203 223 33
0.98433917760848999 5.96895694732666016 1.01136672496795654 145 208 203 223 33
1.02478814125061035 5.9009709358215332 0.893796563148498535 145 208 203 223 33
0.907524943351745605 5.81970977783203125 1.17350673675537109 145 208 203 223 33
0.908903717994689941 6.25540733337402344 1.06456637382507324 145 208 203 223 33
0.980915307998657227 6.00286865234375 1.01424133777618408 145 208 203 223 33
1.00233960151672363 6.01500988006591797 1.02837121486663818 145 208 203 223 33
0.999144792556762695 6.02713441848754883 1.01346492767333984 145 208 203 223 33
1.01338911056518555 6.00358200073242188 0.970454692840576172 145 208 203 223 33
1.01776707172393799 6.01886796951293945 0.952641785144805908 145 208 203 223 33
1.0348351001739502 6.03523826599121094 0.978489696979522705 145 208 203 223 33
1.00508975982666016 6.00014829635620117 0.995957136154174805 145 208 203 223 33
1.00512576103210449 6.05477809906005859 0.970957159996032715 145 208 203 223 33
0.997531712055206299 6.05576515197753906 1.01893842220306396 145 208 203 223 33
1.01247382164001465 6.14761114120483398 1.20677340030670166 145 208 203 223 33
0.986657857894897461 6.1973567008972168 1.22609543800354004 145 208 203 223 33
0.958120584487915039 6.22704124450683594 1.22120118141174316 145 208 203 223 33
