ply
format ascii 1.0
element vertex 262
property float x
property float y
property float z
property uchar red
property uchar green
property uchar blue
property uchar alpha
property uint label
end_header
7.55089187622070312 3.48515105247497559 0.851037502288818359 149 0 58 242 14
7.71811103820800781 3.2967989444732666 0.803973615169525146 149 0 58 242 14
7.67969083786010742 3.32868170738220215 0.813431084156036377 149 0 58 242 14
7.70457029342651367 3.17967009544372559 0.850821018218994141 149 0 58 242 14
7.68545246124267578 3.20580577850341797 0.854158997535705566 149 0 58 242 14
7.61315345764160156 3.37478351593017578 0.848544180393218994 149 0 58 242 14
7.63126850128173828 3.34560322761535645 0.843808233737945557 149 0 58 242 14
7.65544748306274414 3.3531196117401123 0.835263073444366455 149 0 58 242 14
7.6280364990234375 3.41772079467773438 0.843703687191009521 149 0 58 242 14
7.6559147834777832 3.4007561206817627 0.835176527500152588 149 0 58 242 14
7.53302574157714844 3.41036844253540039 0.843995511531829834 149 0 58 242 14
7.55074834823608398 3.41990208625793457 0.856116414070129395 149 0 58 242 14
7.57247066497802734 3.36476397514343262 0.855923891067504883 149 0 58 242 14
7.75025224685668945 3.23537445068359375 0.8171539306640625 149 0 58 242 14
7.71473836898803711 3.26022458076477051 0.81571584939956665 149 0 58 242 14
7.70539426803588867 3.26853847503662109 0.824303984642028809 149 0 58 242 14
7.70011806488037109 3.2605283260345459 0.834618628025054932 149 0 58 242 14
7.66843175888061523 3.25082969665527344 0.844808280467987061 149 0 58 242 14
7.62930679321289062 3.23688626289367676 0.837262213230133057 149 0 58 242 14
7.64656305313110352 3.2452080249786377 0.845130443572998047 149 0 58 242 14
7.60037708282470703 3.28532505035400391 0.843728721141815186 149 0 58 242 14
7.55495882034301758 3.34319686889648438 0.845165014266967773 149 0 58 242 14
7.57621574401855469 3.3434758186340332 0.851809799671173096 149 0 58 242 14
7.7634119987487793 3.23685097694396973 0.804069459438323975 149 0 58 242 14
7.79618263244628906 3.23188996315002441 0.795169472694396973 149 0 58 242 14
7.72374391555786133 3.46612262725830078 0.799503862857818604 149 0 58 242 14
7.69522523880004883 3.48729348182678223 0.810392200946807861 149 0 58 242 14
7.68701553344726562 3.45759415626525879 0.812288761138916016 149 0 58 242 14
7.70461559295654297 3.43490886688232422 0.805387258529663086 149 0 58 242 14
7.67177248001098633 3.3886110782623291 0.814406216144561768 149 0 58 242 14
7.70959711074829102 3.34585785865783691 0.802769958972930908 149 0 58 242 14
7.71178340911865234 3.38797354698181152 0.799986124038696289 149 0 58 242 14
7.71781730651855469 3.41396093368530273 0.7982674241065979 149 0 58 242 14
7.66676473617553711 3.32107043266296387 0.835080981254577637 149 0 58 242 14
7.62422657012939453 3.30238676071166992 0.848160922527313232 149 0 58 242 14
7.61434459686279297 3.33481693267822266 0.84999614953994751 149 0 58 242 14
7.65825223922729492 3.28711080551147461 0.840589940547943115 149 0 58 242 14
7.65417051315307617 3.51213669776916504 0.83823472261428833 149 0 58 242 14
7.62514591217041016 3.45651674270629883 0.84676969051361084 149 0 58 242 14
7.66649341583251953 3.46575045585632324 0.834816575050354004 149 0 58 242 14
7.60582733154296875 3.44623875617980957 0.849859058856964111 149 0 58 242 14
7.60892248153686523 3.50450944900512695 0.850502133369445801 149 0 58 242 14
7.54802942276000977 3.52385950088500977 0.856169044971466064 149 0 58 242 14
7.53412866592407227 3.49667143821716309 0.844578206539154053 149 0 58 242 14
7.68256759643554688 3.61105561256408691 0.833101451396942139 149 0 58 242 14
7.70957183837890625 3.65180087089538574 0.839790523052215576 149 0 58 242 14
7.72391843795776367 3.62183833122253418 0.821372389793395996 149 0 58 242 14
7.6681513786315918 3.54383158683776855 0.824830293655395508 149 0 58 242 14
7.65325355529785156 3.54979443550109863 0.842119336128234863 149 0 58 242 14
7.60472011566162109 3.53483486175537109 0.850820958614349365 149 0 58 242 14
7.62515783309936523 3.53500127792358398 0.846759140491485596 149 0 58 242 14
7.59786176681518555 3.58472061157226562 0.854224503040313721 149 0 58 242 14
7.66819667816162109 3.63431930541992188 0.844884634017944336 149 0 58 242 14
7.66395759582519531 3.65974116325378418 0.855030655860900879 149 0 58 242 14
7.67023134231567383 3.58740806579589844 0.843849897384643555 149 0 58 242 14
7.63240861892700195 3.62188625335693359 0.8531607985496521 149 0 58 242 14
7.70003271102905273 3.69058084487915039 0.849800050258636475 149 0 58 242 14
7.72394657135009766 3.69930672645568848 0.84746253490447998 149 0 58 242 14
7.69320583343505859 3.52756667137145996 0.810426175594329834 149 0 58 242 14
7.68914794921875 3.58749222755432129 0.819493353366851807 149 0 58 242 14
7.75256538391113281 3.59029102325439453 0.799282312393188477 149 0 58 242 14
7.59094762802124023 3.65491700172424316 0.85863339900970459 149 0 58 242 14
7.56613349914550781 3.60903668403625488 0.857209861278533936 149 0 58 242 14
7.60081386566162109 3.64545631408691406 0.863924860954284668 149 0 58 242 14
7.55331325531005859 3.62524318695068359 0.855821788311004639 149 0 58 242 14
7.72988033294677734 3.7252962589263916 0.876409053802490234 149 0 58 242 14
7.57803106307983398 3.47856831550598145 0.85345226526260376 149 0 58 242 14
7.51779699325561523 3.56270027160644531 0.844799935817718506 149 0 58 242 14
7.53382205963134766 3.56050229072570801 0.854941070079803467 149 0 58 242 14
7.76820278167724609 3.61313843727111816 0.806438624858856201 149 0 58 242 14
7.6605687141418457 3.71526956558227539 0.865022778511047363 149 0 58 242 14
7.64116334915161133 3.71557044982910156 0.84504997730255127 149 0 58 242 14
7.63524341583251953 3.69677853584289551 0.854257047176361084 149 0 58 242 14
7.65244007110595703 3.69185328483581543 0.858308792114257812 149 0 58 242 14
7.71239757537841797 3.51917862892150879 0.801681756973266602 149 0 58 242 14
7.9195404052734375 3.3001558780670166 0.857000589370727539 149 0 58 242 14
7.88542985916137695 3.28996658325195312 0.82417219877243042 149 0 58 242 14
7.87121391296386719 3.3366997241973877 0.824557900428771973 149 0 58 242 14
7.88069581985473633 3.30163073539733887 0.814085721969604492 149 0 58 242 14
7.97580671310424805 3.29658174514770508 0.878206074237823486 149 0 58 242 14
7.93976020812988281 3.35053634643554688 0.884686946868896484 149 0 58 242 14
7.93887901306152344 3.34951519966125488 0.91723942756652832 149 0 58 242 14
7.9189152717590332 3.34402918815612793 0.870120823383331299 149 0 58 242 14
7.96750831604003906 3.41726779937744141 0.902165055274963379 149 0 58 242 14
7.95901632308959961 3.41911602020263672 0.880815744400024414 149 0 58 242 14
7.97365999221801758 3.37925601005554199 0.905427515506744385 149 0 58 242 14
7.96622514724731445 3.41195321083068848 0.927824497222900391 149 0 58 242 14
7.96909713745117188 3.37590575218200684 0.885209619998931885 149 0 58 242 14
7.8829493522644043 3.36157703399658203 0.794847071170806885 149 0 58 242 14
7.87826919555664062 3.37754011154174805 0.849984884262084961 149 0 58 242 14
7.89906072616577148 3.39794039726257324 0.862495541572570801 149 0 58 242 14
7.84905433654785156 3.42858481407165527 0.842492043972015381 149 0 58 242 14
7.85332489013671875 3.3696599006652832 0.823668062686920166 149 0 58 242 14
7.88255834579467773 3.4548487663269043 0.873733639717102051 149 0 58 242 14
7.87748289108276367 3.49903249740600586 0.886569678783416748 149 0 58 242 14
7.90301895141601562 3.50155162811279297 0.905737042427062988 149 0 58 242 14
7.93462991714477539 3.49843668937683105 0.935617446899414062 149 0 58 242 14
7.93473100662231445 3.45294833183288574 0.902462124824523926 149 0 58 242 14
7.95583963394165039 3.45045304298400879 0.92440485954284668 149 0 58 242 14
7.86546897888183594 3.43859124183654785 0.861233711242675781 149 0 58 242 14
7.8248896598815918 3.47961640357971191 0.837081432342529297 149 0 58 242 14
7.95543289184570312 3.3812248706817627 0.874549686908721924 149 0 58 242 14
7.92294168472290039 3.4318389892578125 0.875014960765838623 149 0 58 242 14
7.82734203338623047 3.45091366767883301 0.834392249584197998 149 0 58 242 14
7.8952937126159668 3.31322813034057617 0.794028878211975098 149 0 58 242 14
7.74919652938842773 3.68353772163391113 0.842563390731811523 149 0 58 242 14
7.77322292327880859 3.70454692840576172 0.864823460578918457 149 0 58 242 14
7.80983543395996094 3.54055023193359375 0.850574851036071777 149 0 58 242 14
7.79253292083740234 3.58714628219604492 0.847008764743804932 149 0 58 242 14
7.82732725143432617 3.56232213973999023 0.865981698036193848 149 0 58 242 14
7.76210355758666992 3.56335902214050293 0.83685910701751709 149 0 58 242 14
7.96690464019775391 3.51886868476867676 0.946719825267791748 149 0 58 242 14
7.93251752853393555 3.5238494873046875 0.924007892608642578 149 0 58 242 14
7.92157506942749023 3.55606937408447266 0.934087991714477539 149 0 58 242 14
7.83772945404052734 3.58703708648681641 0.870455443859100342 149 0 58 242 14
7.8254847526550293 3.65225052833557129 0.876820921897888184 149 0 58 242 14
7.8304286003112793 3.68225193023681641 0.906019926071166992 149 0 58 242 14
7.80360889434814453 3.72047829627990723 0.884219467639923096 149 0 58 242 14
7.88951253890991211 3.52409124374389648 0.896008789539337158 149 0 58 242 14
7.93593215942382812 3.58060669898986816 0.943648934364318848 149 0 58 242 14
7.89265537261962891 3.58292365074157715 0.876304328441619873 149 0 58 242 14
7.88348007202148438 3.63177657127380371 0.876913547515869141 149 0 58 242 14
7.88756847381591797 3.59943175315856934 0.931641101837158203 149 0 58 242 14
7.91243076324462891 3.62400388717651367 0.928756535053253174 149 0 58 242 14
7.79132986068725586 3.67892956733703613 0.865553557872772217 149 0 58 242 14
7.81093025207519531 3.64177823066711426 0.868735313415527344 149 0 58 242 14
7.78711700439453125 3.63347578048706055 0.843704760074615479 149 0 58 242 14
7.77126693725585938 3.64817976951599121 0.821929931640625 149 0 58 242 14
7.80946731567382812 3.60691142082214355 0.85918128490447998 149 0 58 242 14
7.91420316696166992 3.52836394309997559 0.906239807605743408 149 0 58 242 14
7.89093303680419922 3.55211353302001953 0.893447697162628174 149 0 58 242 14
7.86297321319580078 3.5652616024017334 0.878916263580322266 149 0 58 242 14
7.91411066055297852 3.57686877250671387 0.886345326900482178 149 0 58 242 14
7.84024810791015625 3.51558613777160645 0.871135413646697998 149 0 58 242 14
7.83525419235229492 3.4047541618347168 0.824460804462432861 149 0 58 242 14
7.85855245590209961 3.43018889427185059 0.802173495292663574 149 0 58 242 14
7.86984634399414062 3.40119147300720215 0.798446953296661377 149 0 58 242 14
7.86007118225097656 3.41673636436462402 0.752730190753936768 149 0 58 242 14
7.87774658203125 3.3527376651763916 0.757089793682098389 149 0 58 242 14
7.8291015625 3.26273822784423828 0.768564820289611816 149 0 58 242 14
7.81100702285766602 3.23832178115844727 0.785744607448577881 149 0 58 242 14
7.84077310562133789 3.48299527168273926 0.792439639568328857 149 0 58 242 14
7.84534263610839844 3.45271706581115723 0.80801314115524292 149 0 58 242 14
7.84173822402954102 3.48341250419616699 0.804689526557922363 149 0 58 242 14
7.8178858757019043 3.46945548057556152 0.824777543544769287 149 0 58 242 14
7.85406827926635742 3.44095063209533691 0.765771687030792236 149 0 58 242 14
7.83511447906494141 3.49867939949035645 0.766307055950164795 149 0 58 242 14
7.83870315551757812 3.45371723175048828 0.744148671627044678 149 0 58 242 14
7.85483980178833008 3.32511997222900391 0.74349820613861084 149 0 58 242 14
7.85574245452880859 3.38351154327392578 0.737353503704071045 149 0 58 242 14
7.86055469512939453 3.29750490188598633 0.760019779205322266 149 0 58 242 14
7.81866073608398438 3.53525781631469727 0.764427840709686279 149 0 58 242 14
7.80535602569580078 3.56658482551574707 0.774012923240661621 149 0 58 242 14
7.80913305282592773 3.55253815650939941 0.792908787727355957 149 0 58 242 14
7.80300188064575195 3.50620150566101074 0.824652314186096191 149 0 58 242 14
7.78386831283569336 3.56989121437072754 0.829466342926025391 149 0 58 242 14
7.82021999359130859 3.52882027626037598 0.808342158794403076 149 0 58 242 14
7.80570411682128906 3.56819272041320801 0.815793752670288086 149 0 58 242 14
7.78402042388916016 3.53110218048095703 0.834470570087432861 149 0 58 242 14
7.79688739776611328 3.59978389739990234 0.828313171863555908 149 0 58 242 14
7.78618860244750977 3.60477209091186523 0.80178523063659668 149 0 58 242 14
7.89535379409790039 3.14307451248168945 0.851458370685577393 149 0 58 242 14
7.85602045059204102 3.15464305877685547 0.853838443756103516 149 0 58 242 14
7.81472206115722656 3.18382668495178223 0.853419661521911621 149 0 58 242 14
7.7523198127746582 3.18831348419189453 0.857088088989257812 149 0 58 242 14
7.76621532440185547 3.15498256683349609 0.848204731941223145 149 0 58 242 14
7.8743281364440918 3.27364659309387207 0.819273471832275391 149 0 58 242 14
7.73460102081298828 3.15499043464660645 0.833279907703399658 149 0 58 242 14
7.73589658737182617 3.16730284690856934 0.850124061107635498 149 0 58 242 14
7.77473115921020508 3.17193365097045898 0.856290340423583984 149 0 58 242 14
8.04778957366943359 3.21616435050964355 0.895412027835845947 149 0 58 242 14
8.01265430450439453 3.21166801452636719 0.883520245552062988 149 0 58 242 14
8.04844474792480469 3.26322579383850098 0.902569055557250977 149 0 58 242 14
8.00558853149414062 3.26708340644836426 0.891356170177459717 149 0 58 242 14
8.00821781158447266 3.19247126579284668 0.883839249610900879 149 0 58 242 14
7.83789730072021484 3.23018908500671387 0.801927864551544189 149 0 58 242 14
7.99913120269775391 3.28381609916687012 0.890646994113922119 149 0 58 242 14
7.86678028106689453 3.18255949020385742 0.856538057327270508 149 0 58 242 14
7.86054706573486328 3.20642423629760742 0.8505287766456604 149 0 58 242 14
7.90463590621948242 3.23524737358093262 0.862961530685424805 149 0 58 242 14
7.84418821334838867 3.25054216384887695 0.822429537773132324 149 0 58 242 14
7.91690731048583984 3.26739025115966797 0.858983337879180908 149 0 58 242 14
8.02835369110107422 3.18582868576049805 0.898629307746887207 149 0 58 242 14
7.79617023468017578 3.23015499114990234 0.82515561580657959 149 0 58 242 14
7.78741216659545898 3.22127676010131836 0.808887779712677002 149 0 58 242 14
7.82971096038818359 3.2100224494934082 0.84315568208694458 149 0 58 242 14
7.77301311492919922 3.22432947158813477 0.835855662822723389 149 0 58 242 14
7.95582771301269531 3.11122035980224609 0.830378055572509766 149 0 58 242 14
7.95144033432006836 3.23913359642028809 0.877574920654296875 149 0 58 242 14
7.987945556640625 3.16300415992736816 0.895726382732391357 149 0 58 242 14
7.9693760871887207 3.16444730758666992 0.87675940990447998 149 0 58 242 14
7.96299552917480469 3.18882489204406738 0.876506924629211426 149 0 58 242 14
7.86349344253540039 3.25205230712890625 0.795513272285461426 149 0 58 242 14
7.89830446243286133 3.16956400871276855 0.85953211784362793 149 0 58 242 14
7.94513559341430664 3.17250275611877441 0.868996918201446533 149 0 58 242 14
7.96147632598876953 3.14234805107116699 0.86601555347442627 149 0 58 242 14
7.92005157470703125 3.13593077659606934 0.84727013111114502 149 0 58 242 14
7.88923025131225586 3.28650379180908203 0.791717529296875 149 0 58 242 14
7.65116119384765625 3.42519903182983398 0.105565771460533142 149 0 58 242 14
7.66129875183105469 3.42346286773681641 0.14035487174987793 149 0 58 242 14
7.67413711547851562 3.40093994140625 0.0918745696544647217 149 0 58 242 14
7.68470573425292969 3.40503597259521484 0.12095121294260025 149 0 58 242 14
7.68992757797241211 3.41408896446228027 0.181344702839851379 149 0 58 242 14
7.70179319381713867 3.41093635559082031 0.401250004768371582 149 0 58 242 14
7.73964881896972656 3.39142704010009766 0.439999997615814209 149 0 58 242 14
7.74476242065429688 3.38993024826049805 0.394316613674163818 149 0 58 242 14
7.68108272552490234 3.42530393600463867 0.396662056446075439 149 0 58 242 14
7.73590898513793945 3.39023494720458984 0.502371907234191895 149 0 58 242 14
7.6685328483581543 3.43481159210205078 0.284540891647338867 149 0 58 242 14
7.67260837554931641 3.44603943824768066 0.481126606464385986 149 0 58 242 14
7.87995100021362305 3.3491981029510498 0.495179980993270874 149 0 58 242 14
7.8119359016418457 3.38203668594360352 0.306734830141067505 149 0 58 242 14
7.77536487579345703 3.38292169570922852 0.26031649112701416 149 0 58 242 14
7.7899322509765625 3.38037681579589844 0.290426731109619141 149 0 58 242 14
7.77428483963012695 3.38120532035827637 0.138063445687294006 149 0 58 242 14
7.79033565521240234 3.38034296035766602 0.123399853706359863 149 0 58 242 14
7.8150172233581543 3.37728333473205566 0.164299309253692627 149 0 58 242 14
7.65177202224731445 3.43869996070861816 0.171479642391204834 149 0 58 242 14
7.66933584213256836 3.42556524276733398 0.185040712356567383 149 0 58 242 14
7.87256717681884766 3.34645509719848633 0.538309395313262939 149 0 58 242 14
7.67384481430053711 3.43657851219177246 0.482602983713150024 149 0 58 242 14
7.78029823303222656 3.37204575538635254 0.489512383937835693 149 0 58 242 14
7.7858433723449707 3.36992430686950684 0.51773756742477417 149 0 58 242 14
7.80216646194458008 3.3625490665435791 0.552682459354400635 149 0 58 242 14
7.68748855590820312 3.4195709228515625 0.465155065059661865 149 0 58 242 14
7.70846080780029297 3.40433621406555176 0.497837483882904053 149 0 58 242 14
7.68366909027099609 3.41923356056213379 0.54202115535736084 149 0 58 242 14
7.84277248382568359 3.35991740226745605 0.446690559387207031 149 0 58 242 14
7.79849338531494141 3.37373638153076172 0.343670487403869629 149 0 58 242 14
7.79631328582763672 3.37368535995483398 0.375995129346847534 149 0 58 242 14
7.79756975173950195 3.37750744819641113 0.186601981520652771 149 0 58 242 14
7.81487369537353516 3.38121461868286133 0.234983637928962708 149 0 58 242 14
7.73545169830322266 3.39371776580810547 0.172853440046310425 149 0 58 242 14
7.73377275466918945 3.39178633689880371 0.14650079607963562 149 0 58 242 14
7.73797607421875 3.37716960906982422 0.0960573628544807434 149 0 58 242 14
7.85678672790527344 3.35683608055114746 0.504549086093902588 149 0 58 242 14
7.83715486526489258 3.35577392578125 0.527809262275695801 149 0 58 242 14
7.67034482955932617 3.43647050857543945 0.379184484481811523 149 0 58 242 14
7.76461505889892578 3.38466262817382812 0.339897811412811279 149 0 58 242 14
7.68157958984375 3.42310070991516113 0.291975349187850952 149 0 58 242 14
7.70526647567749023 3.40932559967041016 0.323125004768371582 149 0 58 242 14
7.66263294219970703 3.43984365463256836 0.320746749639511108 149 0 58 242 14
7.71576738357543945 3.40499997138977051 0.264999985694885254 149 0 58 242 14
7.74499988555908203 3.39268636703491211 0.245000004768371582 149 0 58 242 14
7.79210662841796875 3.37263345718383789 0.445144742727279663 149 0 58 242 14
7.82143115997314453 3.36340141296386719 0.477540343999862671 149 0 58 242 14
7.82161760330200195 3.36964035034179688 0.41169583797454834 149 0 58 242 14
7.67185306549072266 3.42932295799255371 0.574617683887481689 149 0 58 242 14
7.66981649398803711 3.4299004077911377 0.641904056072235107 149 0 58 242 14
7.81942319869995117 3.35909461975097656 0.573535382747650146 149 0 58 242 14
7.67345905303955078 3.42776799201965332 0.678276419639587402 149 0 58 242 14
7.76825809478759766 3.37341761589050293 0.57075732946395874 149 0 58 242 14
7.71549034118652344 3.39050459861755371 0.651856422424316406 149 0 58 242 14
7.68918085098266602 3.41023135185241699 0.576413989067077637 149 0 58 242 14
7.72715234756469727 3.39023280143737793 0.559530675411224365 149 0 58 242 14
7.78268337249755859 3.36461567878723145 0.624151229858398438 149 0 58 242 14
7.85993337631225586 3.34803342819213867 0.587905168533325195 149 0 58 242 14
7.74572515487670898 3.37100124359130859 0.683365106582641602 149 0 58 242 14
7.68491411209106445 3.40900778770446777 0.667479813098907471 149 0 58 242 14
7.75433874130249023 3.37487459182739258 0.624609589576721191 149 0 58 242 14
7.71741104125976562 3.37996363639831543 0.698673129081726074 149 0 58 242 14
7.77359724044799805 3.36588382720947266 0.65336298942565918 149 0 58 242 14
