ply
format ascii 1.0
element vertex 607
property float x
property float y
property float z
property uchar red
property uchar green
property uchar blue
property uchar alpha
property uint label
end_header
7.51229095458984375 4.93723869323730469 2.4808650016784668 190 153 112 255 1
7.54402351379394531 4.8881535530090332 2.47474241256713867 190 153 112 255 1
7.61572980880737305 4.69943714141845703 2.47930073738098145 190 153 112 255 1
7.60372018814086914 4.74402046203613281 2.47879123687744141 190 153 112 255 1
7.64569473266601562 4.60544109344482422 2.50241422653198242 190 153 112 255 1
7.64165306091308594 4.60352945327758789 2.47977280616760254 190 153 112 255 1
7.64099550247192383 4.57195663452148438 2.48562097549438477 190 153 112 255 1
7.6414031982421875 4.59938383102416992 2.53783321380615234 190 153 112 255 1
7.6033172607421875 4.66089773178100586 2.51679444313049316 190 153 112 255 1
7.61472129821777344 4.65107822418212891 2.48296666145324707 190 153 112 255 1
7.59850740432739258 4.70115423202514648 2.48450756072998047 190 153 112 255 1
7.58983230590820312 4.70776987075805664 2.50912570953369141 190 153 112 255 1
7.59088420867919922 4.7421112060546875 2.49072265625 190 153 112 255 1
7.58592128753662109 4.73970699310302734 2.52280974388122559 190 153 112 255 1
7.56982994079589844 4.7702631950378418 2.51691722869873047 190 153 112 255 1
7.5762028694152832 4.77118682861328125 2.47637128829956055 190 153 112 255 1
7.53635311126708984 4.87759971618652344 2.48321056365966797 190 153 112 255 1
7.55390357971191406 4.82813405990600586 2.48490190505981445 190 153 112 255 1
7.54181432723999023 4.84563446044921875 2.51753640174865723 190 153 112 255 1
7.57336091995239258 4.79556083679199219 2.48494482040405273 190 153 112 255 1
7.56668853759765625 4.83411169052124023 2.47621846199035645 190 153 112 255 1
7.58661174774169922 4.73924779891967773 2.73434829711914062 190 153 112 255 1
7.56916046142578125 4.78163862228393555 2.75061225891113281 190 153 112 255 1
7.55388450622558594 4.81821203231811523 2.74581360816955566 190 153 112 255 1
7.58751678466796875 4.75354528427124023 2.76348328590393066 190 153 112 255 1
7.64594841003417969 4.57479286193847656 2.59834766387939453 190 153 112 255 1
7.62838220596313477 4.62482976913452148 2.56499767303466797 190 153 112 255 1
7.62943410873413086 4.60683965682983398 2.60968875885009766 190 153 112 255 1
7.61669731140136719 4.64124155044555664 2.60271906852722168 190 153 112 255 1
7.65489864349365234 4.53815221786499023 2.55285358428955078 190 153 112 255 1
7.6136622428894043 4.67278051376342773 2.77258706092834473 190 153 112 255 1
7.60260915756225586 4.6994171142578125 2.74033236503601074 190 153 112 255 1
7.60472345352172852 4.70481443405151367 2.76408934593200684 190 153 112 255 1
7.59727668762207031 4.68749856948852539 2.60442256927490234 190 153 112 255 1
7.60008859634399414 4.68805789947509766 2.62142753601074219 190 153 112 255 1
7.6039891242980957 4.67745113372802734 2.54983949661254883 190 153 112 255 1
7.5359187126159668 4.89451217651367188 2.66713619232177734 190 153 112 255 1
7.51854276657104492 4.91869306564331055 2.64161539077758789 190 153 112 255 1
7.54015779495239258 4.87260246276855469 2.70281004905700684 190 153 112 255 1
7.51007270812988281 4.93556594848632812 2.55895519256591797 190 153 112 255 1
7.657806396484375 4.53689146041870117 2.62642168998718262 190 153 112 255 1
7.51937246322631836 4.94576740264892578 2.71491217613220215 190 153 112 255 1
7.54249048233032227 4.84294986724853516 2.56031537055969238 190 153 112 255 1
7.5503387451171875 4.83007669448852539 2.60694336891174316 190 153 112 255 1
7.56137371063232422 4.79297351837158203 2.57542276382446289 190 153 112 255 1
7.59481000900268555 4.72664928436279297 2.56229662895202637 190 153 112 255 1
7.55967092514038086 4.80380010604858398 2.51816868782043457 190 153 112 255 1
7.57671356201171875 4.75641012191772461 2.59734344482421875 190 153 112 255 1
7.59069728851318359 4.72021198272705078 2.61747431755065918 190 153 112 255 1
7.508148193359375 4.96574735641479492 2.64277935028076172 190 153 112 255 1
7.5152277946472168 4.9259181022644043 2.69449543952941895 190 153 112 255 1
7.66638565063476562 4.55664396286010742 2.74906396865844727 190 153 112 255 1
7.64964103698730469 4.60486412048339844 2.74599266052246094 190 153 112 255 1
7.65225601196289062 4.56914377212524414 2.78991961479187012 190 153 112 255 1
7.6532740592956543 4.5821528434753418 2.74939560890197754 190 153 112 255 1
7.64524173736572266 4.5974888801574707 2.78832793235778809 190 153 112 255 1
7.62898731231689453 4.62691736221313477 2.78153157234191895 190 153 112 255 1
7.54212141036987305 4.8952484130859375 2.72884249687194824 190 153 112 255 1
7.55691814422607422 4.80378532409667969 2.71633386611938477 190 153 112 255 1
7.55312490463256836 4.84437370300292969 2.7186744213104248 190 153 112 255 1
7.62824392318725586 4.64157295227050781 2.70659971237182617 190 153 112 255 1
7.6464381217956543 4.59499740600585938 2.65045261383056641 190 153 112 255 1
7.64996862411499023 4.56333494186401367 2.63251423835754395 190 153 112 255 1
7.64106988906860352 4.62013530731201172 2.67348837852478027 190 153 112 255 1
7.53989648818969727 4.87055253982543945 2.660064697265625 190 153 112 255 1
7.55032634735107422 4.82491588592529297 2.68393063545227051 190 153 112 255 1
7.54751682281494141 4.84530496597290039 2.66713857650756836 190 153 112 255 1
7.54159927368164062 4.85310077667236328 2.63374209403991699 190 153 112 255 1
7.56896448135375977 4.79045295715332031 2.64279413223266602 190 153 112 255 1
7.59391498565673828 4.72878456115722656 2.67238545417785645 190 153 112 255 1
7.57792997360229492 4.76879215240478516 2.70980548858642578 190 153 112 255 1
7.60249471664428711 4.72102022171020508 2.70238685607910156 190 153 112 255 1
7.60675907135009766 4.68188571929931641 2.70296072959899902 190 153 112 255 1
7.59821653366088867 4.68566751480102539 2.66618609428405762 190 153 112 255 1
7.53182601928710938 4.88564157485961914 2.57794785499572754 190 153 112 255 1
7.52550363540649414 4.91948413848876953 2.61092329025268555 190 153 112 255 1
7.53231525421142578 4.88807058334350586 2.62608814239501953 190 153 112 255 1
7.34111738204956055 5.3442840576171875 2.40163207054138184 190 153 112 255 1
7.34527921676635742 5.31971073150634766 2.34086298942565918 190 153 112 255 1
7.34078073501586914 5.3512115478515625 2.31510043144226074 190 153 112 255 1
7.28876876831054688 5.49118328094482422 2.26596665382385254 190 153 112 255 1
7.28965997695922852 5.48503541946411133 2.31044554710388184 190 153 112 255 1
7.29775714874267578 5.46666765213012695 2.29610681533813477 190 153 112 255 1
7.28130960464477539 5.49739694595336914 2.24020123481750488 190 153 112 255 1
7.36958408355712891 5.25770473480224609 2.24099063873291016 190 153 112 255 1
7.38753604888916016 5.22681951522827148 2.26473212242126465 190 153 112 255 1
7.37637472152709961 5.26213407516479492 2.28533220291137695 190 153 112 255 1
7.39248895645141602 5.21486425399780273 2.32397890090942383 190 153 112 255 1
7.43891048431396484 5.07459926605224609 2.08289718627929688 190 153 112 255 1
7.37030363082885742 5.26043272018432617 2.21700429916381836 190 153 112 255 1
7.39686918258666992 5.2010345458984375 2.16681981086730957 190 153 112 255 1
7.36567306518554688 5.26388883590698242 2.18407869338989258 190 153 112 255 1
7.34990501403808594 5.30056095123291016 2.15385127067565918 190 153 112 255 1
7.34656000137329102 5.31218051910400391 2.194366455078125 190 153 112 255 1
7.34704303741455078 5.32317018508911133 2.22949075698852539 190 153 112 255 1
7.35695266723632812 5.28572463989257812 2.41031217575073242 190 153 112 255 1
7.34441328048706055 5.32003307342529297 2.44229626655578613 190 153 112 255 1
7.45467615127563477 5.04191112518310547 2.13767647743225098 190 153 112 255 1
7.43526840209960938 5.11733675003051758 2.34688925743103027 190 153 112 255 1
7.44028234481811523 5.11499357223510742 2.3896327018737793 190 153 112 255 1
7.44753503799438477 5.07439517974853516 2.3700106143951416 190 153 112 255 1
7.45325469970703125 5.06048154830932617 2.40111517906188965 190 153 112 255 1
7.45796060562133789 5.05595636367797852 2.25721573829650879 190 153 112 255 1
7.45720624923706055 5.05420351028442383 2.30598592758178711 190 153 112 255 1
7.44570446014404297 5.08527278900146484 2.25744533538818359 190 153 112 255 1
7.44622230529785156 5.11144733428955078 2.51984333992004395 190 153 112 255 1
7.45076322555541992 5.08458471298217773 2.50334596633911133 190 153 112 255 1
7.44323968887329102 5.09268617630004883 2.54992890357971191 190 153 112 255 1
7.3384089469909668 5.36013650894165039 2.45686197280883789 190 153 112 255 1
7.3192439079284668 5.40187931060791016 2.47951149940490723 190 153 112 255 1
7.3107609748840332 5.44014120101928711 2.43890953063964844 190 153 112 255 1
7.31283473968505859 5.42689704895019531 2.35762333869934082 190 153 112 255 1
7.33356857299804688 5.37423563003540039 2.39576268196105957 190 153 112 255 1
7.32141304016113281 5.39716100692749023 2.38757967948913574 190 153 112 255 1
7.34177541732788086 5.31066274642944336 2.50644493103027344 190 153 112 255 1
7.33742237091064453 5.35370588302612305 2.52559542655944824 190 153 112 255 1
7.31240749359130859 5.38431167602539062 2.01493310928344727 190 153 112 255 1
7.42580223083496094 5.1079707145690918 2.05904412269592285 190 153 112 255 1
7.40420913696289062 5.1533360481262207 2.06014490127563477 190 153 112 255 1
7.35918378829956055 5.28550577163696289 2.33697223663330078 190 153 112 255 1
7.30657672882080078 5.47884035110473633 2.51648044586181641 190 153 112 255 1
7.28735637664794922 5.48257589340209961 2.47054409980773926 190 153 112 255 1
7.28437376022338867 5.50382041931152344 2.54775023460388184 190 153 112 255 1
7.29160737991333008 5.46564769744873047 2.53980422019958496 190 153 112 255 1
7.38427639007568359 5.24597358703613281 2.33916068077087402 190 153 112 255 1
7.38497734069824219 5.23605632781982422 2.37149190902709961 190 153 112 255 1
7.36723566055297852 5.27037572860717773 2.37115955352783203 190 153 112 255 1
7.33084964752197266 5.31844806671142578 2.0456547737121582 190 153 112 255 1
7.32125473022460938 5.35438632965087891 2.03186345100402832 190 153 112 255 1
7.34151363372802734 5.34170055389404297 2.09259915351867676 190 153 112 255 1
7.32577800750732422 5.34954023361206055 2.05718898773193359 190 153 112 255 1
7.33890438079833984 5.30305576324462891 2.01501560211181641 190 153 112 255 1
7.35239982604980469 5.26613855361938477 2.05168867111206055 190 153 112 255 1
7.29879856109619141 5.45894718170166016 2.40325736999511719 190 153 112 255 1
7.31052398681640625 5.43668699264526367 2.47129130363464355 190 153 112 255 1
7.29176855087280273 5.4808502197265625 2.42465376853942871 190 153 112 255 1
7.46130037307739258 5.03308868408203125 2.21559000015258789 190 153 112 255 1
7.43857860565185547 5.09298372268676758 2.14868950843811035 190 153 112 255 1
7.45882463455200195 5.05043411254882812 2.18255782127380371 190 153 112 255 1
7.45005178451538086 5.06537342071533203 2.21269941329956055 190 153 112 255 1
7.29677343368530273 5.458953857421875 2.08928465843200684 190 153 112 255 1
7.29788732528686523 5.46089506149291992 2.13232135772705078 190 153 112 255 1
7.44236087799072266 5.09500360488891602 2.41354012489318848 190 153 112 255 1
7.30734109878540039 5.42582607269287109 2.24500107765197754 190 153 112 255 1
7.33021259307861328 5.37682008743286133 2.27004361152648926 190 153 112 255 1
7.31000804901123047 5.42453289031982422 2.28296160697937012 190 153 112 255 1
7.3207697868347168 5.39704465866088867 2.31642723083496094 190 153 112 255 1
7.36154413223266602 5.28011798858642578 2.49562883377075195 190 153 112 255 1
7.38478660583496094 5.22928333282470703 2.09366941452026367 190 153 112 255 1
7.38398981094360352 5.23301362991333008 2.13441109657287598 190 153 112 255 1
7.36964702606201172 5.25430107116699219 2.08752870559692383 190 153 112 255 1
7.42728519439697266 5.14900922775268555 2.32318115234375 190 153 112 255 1
7.41096401214599609 5.18284416198730469 2.37869095802307129 190 153 112 255 1
7.33742713928222656 5.3485870361328125 2.18172454833984375 190 153 112 255 1
7.30189752578735352 5.43680763244628906 2.17995476722717285 190 153 112 255 1
7.32034778594970703 5.38836956024169922 2.1856839656829834 190 153 112 255 1
7.3250727653503418 5.37562990188598633 2.22337675094604492 190 153 112 255 1
7.44841337203979492 5.04856109619140625 2.02646040916442871 190 153 112 255 1
7.45226478576660156 5.05025720596313477 1.98938727378845215 190 153 112 255 1
7.30570554733276367 5.39775848388671875 2.02763700485229492 190 153 112 255 1
7.29032373428344727 5.4414668083190918 2.01568126678466797 190 153 112 255 1
7.40938997268676758 5.16727924346923828 2.09282755851745605 190 153 112 255 1
7.43126153945922852 5.10852813720703125 2.09929728507995605 190 153 112 255 1
7.41793107986450195 5.13922023773193359 2.08972549438476562 190 153 112 255 1
7.3991236686706543 5.18646717071533203 2.12283587455749512 190 153 112 255 1
7.45467710494995117 5.03584384918212891 2.09155535697937012 190 153 112 255 1
7.41497802734375 5.16377925872802734 2.25926971435546875 190 153 112 255 1
7.40442037582397461 5.19455814361572266 2.30476546287536621 190 153 112 255 1
7.40875244140625 5.18468379974365234 2.25719308853149414 190 153 112 255 1
7.4165186882019043 5.17382478713989258 2.50497794151306152 190 153 112 255 1
7.41200923919677734 5.19561290740966797 2.51794624328613281 190 153 112 255 1
7.42908382415771484 5.14405727386474609 2.51152253150939941 190 153 112 255 1
7.40054130554199219 5.20242071151733398 2.48208522796630859 190 153 112 255 1
7.40847635269165039 5.18056869506835938 2.54060554504394531 190 153 112 255 1
7.29117441177368164 5.49277305603027344 2.39162302017211914 190 153 112 255 1
7.28676414489746094 5.49958229064941406 2.35627222061157227 190 153 112 255 1
7.43278837203979492 5.10559177398681641 2.20973396301269531 190 153 112 255 1
7.27234077453613281 5.48971080780029297 2.0393836498260498 190 153 112 255 1
7.33109760284423828 5.35866260528564453 2.48990964889526367 190 153 112 255 1
7.31536769866943359 5.4124455451965332 2.5220339298248291 190 153 112 255 1
7.32309532165527344 5.37923479080200195 2.52278661727905273 190 153 112 255 1
7.30138731002807617 5.44259071350097656 2.52973675727844238 190 153 112 255 1
7.32281351089477539 5.37487316131591797 2.13692998886108398 190 153 112 255 1
7.30702590942382812 5.42901420593261719 2.13112711906433105 190 153 112 255 1
7.32378005981445312 5.37189149856567383 2.08069562911987305 190 153 112 255 1
7.30387020111083984 5.42695093154907227 2.08432817459106445 190 153 112 255 1
7.293060302734375 5.47378969192504883 2.22460412979125977 190 153 112 255 1
7.35622549057006836 5.29476642608642578 2.5283966064453125 190 153 112 255 1
7.39076995849609375 5.26697778701782227 2.54224133491516113 190 153 112 255 1
7.41849422454833984 5.14323806762695312 2.18001365661621094 190 153 112 255 1
7.4091191291809082 5.16891098022460938 2.18974423408508301 190 153 112 255 1
7.43384599685668945 5.11352729797363281 2.24294352531433105 190 153 112 255 1
7.43299150466918945 5.12447404861450195 2.4577181339263916 190 153 112 255 1
7.4160466194152832 5.1630711555480957 2.41332840919494629 190 153 112 255 1
7.42481040954589844 5.15888023376464844 2.45976686477661133 190 153 112 255 1
7.39767169952392578 5.20825386047363281 2.45882701873779297 190 153 112 255 1
7.39421606063842773 5.22565126419067383 2.4093012809753418 190 153 112 255 1
7.34639692306518555 5.32273101806640625 2.47535514831542969 190 153 112 255 1
7.37661123275756836 5.2436070442199707 2.46037411689758301 190 153 112 255 1
7.37907886505126953 5.24776458740234375 2.50484657287597656 190 153 112 255 1
7.38652849197387695 5.23030376434326172 2.52573156356811523 190 153 112 255 1
7.35071182250976562 5.26574277877807617 2.03044629096984863 190 153 112 255 1
7.37176370620727539 5.21544981002807617 2.04308056831359863 190 153 112 255 1
7.37099647521972656 5.22042655944824219 2.01734256744384766 190 153 112 255 1
7.39299917221069336 5.18535184860229492 2.05878567695617676 190 153 112 255 1
7.36063098907470703 5.29019021987915039 2.29943752288818359 190 153 112 255 1
7.35338592529296875 5.30247688293457031 2.25315427780151367 190 153 112 255 1
7.34548139572143555 5.32709741592407227 2.13942956924438477 190 153 112 255 1
7.34710168838500977 5.30840444564819336 2.0871434211730957 190 153 112 255 1
7.43525600433349609 5.13896894454956055 2.61995220184326172 190 153 112 255 1
7.42606306076049805 5.12699699401855469 2.54844141006469727 190 153 112 255 1
7.4218592643737793 5.14840316772460938 2.56454634666442871 190 153 112 255 1
7.40082073211669922 5.16669225692749023 2.60026884078979492 190 153 112 255 1
7.38945674896240234 5.17892837524414062 2.62083268165588379 190 153 112 255 1
7.39818620681762695 5.16867589950561523 2.56765341758728027 190 153 112 255 1
7.38128280639648438 5.20659780502319336 2.55582523345947266 190 153 112 255 1
7.44625234603881836 5.09195709228515625 2.59992122650146484 190 153 112 255 1
7.37499809265136719 5.20140886306762695 2.61008691787719727 190 153 112 255 1
7.3727717399597168 5.21221446990966797 2.55771374702453613 190 153 112 255 1
7.39381504058837891 5.18691205978393555 2.59060001373291016 190 153 112 255 1
7.38249683380126953 5.21807956695556641 2.60755538940429688 190 153 112 255 1
7.4452061653137207 5.11266517639160156 2.62050795555114746 190 153 112 255 1
7.00434589385986328 6.09885358810424805 1.4639509916305542 190 153 112 255 1
7.01737546920776367 6.12865972518920898 1.42968547344207764 190 153 112 255 1
7.06782674789428711 6.0124053955078125 1.46712219715118408 190 153 112 255 1
7.02934980392456055 6.03447771072387695 1.47011244297027588 190 153 112 255 1
7.02904224395751953 6.04925346374511719 1.44670224189758301 190 153 112 255 1
7.06163167953491211 6.02050399780273438 1.43767416477203369 190 153 112 255 1
7.04464960098266602 6.055511474609375 1.42075681686401367 190 153 112 255 1
7.10721302032470703 5.87309551239013672 1.51038789749145508 190 153 112 255 1
7.00199556350708008 6.19922828674316406 1.47984814643859863 190 153 112 255 1
7.01008224487304688 6.15876340866088867 1.46140122413635254 190 153 112 255 1
6.98800754547119141 6.23834753036499023 1.51000535488128662 190 153 112 255 1
7.10561227798461914 5.92391014099121094 1.62089204788208008 190 153 112 255 1
7.11360740661621094 5.87929201126098633 1.63192522525787354 190 153 112 255 1
7.10749530792236328 5.87878227233886719 1.66765737533569336 190 153 112 255 1
6.96270036697387695 6.30699443817138672 1.69180691242218018 190 153 112 255 1
7.26058769226074219 5.52861976623535156 2.03609681129455566 190 153 112 255 1
7.23522138595581055 5.59901762008666992 2.08270573616027832 190 153 112 255 1
7.2503819465637207 5.56763982772827148 2.0371706485748291 190 153 112 255 1
7.08311176300048828 6.00417137145996094 2.12389087677001953 190 153 112 255 1
7.07227849960327148 6.03894901275634766 2.16948056221008301 190 153 112 255 1
7.13011550903320312 5.85358476638793945 1.63708114624023438 190 153 112 255 1
7.24869012832641602 5.58338403701782227 2.2106173038482666 190 153 112 255 1
7.26596260070800781 5.54887008666992188 2.20242476463317871 190 153 112 255 1
7.24642229080200195 5.59840297698974609 2.16369080543518066 190 153 112 255 1
7.12341594696044922 5.94414186477661133 2.51858043670654297 190 153 112 255 1
7.12587881088256836 5.93000650405883789 2.5475471019744873 190 153 112 255 1
7.0585789680480957 6.04942750930786133 1.80035316944122314 190 153 112 255 1
7.07019615173339844 6.02012538909912109 1.83857178688049316 190 153 112 255 1
7.05367851257324219 6.06056642532348633 1.83618104457855225 190 153 112 255 1
6.99129104614257812 6.25371551513671875 2.02570462226867676 190 153 112 255 1
6.97939825057983398 6.28969764709472656 2.02444100379943848 190 153 112 255 1
7.01488494873046875 6.15363073348999023 1.52592742443084717 190 153 112 255 1
7.04442691802978516 6.0817570686340332 1.55382668972015381 190 153 112 255 1
7.16127538681030273 5.82960224151611328 2.17671060562133789 190 153 112 255 1
7.18219232559204102 5.76794099807739258 2.12091922760009766 190 153 112 255 1
7.16877317428588867 5.8059382438659668 2.11407756805419922 190 153 112 255 1
7.16661977767944336 5.78828668594360352 2.07799148559570312 190 153 112 255 1
6.95562648773193359 6.35590505599975586 2.45261764526367188 190 153 112 255 1
6.95520257949829102 6.37584733963012695 2.43640422821044922 190 153 112 255 1
6.95623922348022461 6.38228464126586914 2.47572422027587891 190 153 112 255 1
7.09152364730834961 5.96944093704223633 1.81179273128509521 190 153 112 255 1
7.08873367309570312 5.98158407211303711 1.89940524101257324 190 153 112 255 1
7.09122419357299805 5.98150205612182617 1.85842442512512207 190 153 112 255 1
7.00314188003540039 6.20139360427856445 1.77818143367767334 190 153 112 255 1
7.01244640350341797 6.18027305603027344 1.74473476409912109 190 153 112 255 1
7.03255701065063477 6.12138223648071289 1.82643222808837891 190 153 112 255 1
6.98080778121948242 6.26003360748291016 1.75841760635375977 190 153 112 255 1
7.1172633171081543 5.88178443908691406 1.80914103984832764 190 153 112 255 1
7.13246393203735352 5.85388565063476562 1.76539468765258789 190 153 112 255 1
7.13102340698242188 5.86184501647949219 1.80852174758911133 190 153 112 255 1
7.04719734191894531 6.10210371017456055 2.29313254356384277 190 153 112 255 1
7.061553955078125 6.07306814193725586 2.48873162269592285 190 153 112 255 1
7.05568265914916992 6.10710382461547852 2.52798867225646973 190 153 112 255 1
7.04093408584594727 6.13040590286254883 2.5122683048248291 190 153 112 255 1
7.15102672576904297 5.82986927032470703 2.07697463035583496 190 153 112 255 1
7.1551513671875 5.82776451110839844 2.01348137855529785 190 153 112 255 1
7.16827917098999023 5.7781829833984375 2.03658246994018555 190 153 112 255 1
7.18926239013671875 5.75310087203979492 2.21615314483642578 190 153 112 255 1
7.21895933151245117 5.67150402069091797 2.23103499412536621 190 153 112 255 1
7.21820211410522461 5.68158721923828125 2.1748805046081543 190 153 112 255 1
7.13416862487792969 5.89514875411987305 2.14142227172851562 190 153 112 255 1
7.14628696441650391 5.85614776611328125 2.10571479797363281 190 153 112 255 1
7.22584915161132812 5.66071605682373047 2.16047978401184082 190 153 112 255 1
7.18101882934570312 5.7547760009765625 2.07886648178100586 190 153 112 255 1
7.20506715774536133 5.69140386581420898 2.08339881896972656 190 153 112 255 1
7.19983768463134766 5.72965288162231445 2.12009358406066895 190 153 112 255 1
6.99558448791503906 6.21669769287109375 1.60733616352081299 190 153 112 255 1
7.02265071868896484 6.14154624938964844 1.5515587329864502 190 153 112 255 1
7.00870800018310547 6.10417318344116211 1.50897037982940674 190 153 112 255 1
7.05367231369018555 6.07948780059814453 2.17992734909057617 190 153 112 255 1
7.03740882873535156 6.11092948913574219 2.1780548095703125 190 153 112 255 1
7.05763673782348633 6.08345127105712891 2.26682949066162109 190 153 112 255 1
7.27963113784790039 5.51616811752319336 2.13972663879394531 190 153 112 255 1
7.1000823974609375 5.98874855041503906 2.31684994697570801 190 153 112 255 1
7.08570432662963867 6.01546812057495117 2.35661506652832031 190 153 112 255 1
7.10203218460083008 5.98659324645996094 2.42601346969604492 190 153 112 255 1
7.22294235229492188 5.64622306823730469 2.0732719898223877 190 153 112 255 1
7.23243045806884766 5.64147424697875977 2.10902142524719238 190 153 112 255 1
7.21263790130615234 5.68887996673583984 2.12173914909362793 190 153 112 255 1
7.24291753768920898 5.59941387176513672 2.1137092113494873 190 153 112 255 1
7.17951774597167969 5.77742719650268555 2.41738748550415039 190 153 112 255 1
7.17520046234130859 5.8000950813293457 2.45252466201782227 190 153 112 255 1
6.97488260269165039 6.32601594924926758 2.52821564674377441 190 153 112 255 1
6.97040557861328125 6.33579874038696289 2.57193303108215332 190 153 112 255 1
7.24041509628295898 5.61114597320556641 2.38141131401062012 190 153 112 255 1
7.23870944976806641 5.62736988067626953 2.34197759628295898 190 153 112 255 1
7.21901941299438477 5.66279983520507812 2.31852912902832031 190 153 112 255 1
7.22476291656494141 5.6460108757019043 2.36979436874389648 190 153 112 255 1
7.25146293640136719 5.59091711044311523 2.3471064567565918 190 153 112 255 1
7.04255962371826172 6.10967826843261719 2.24061012268066406 190 153 112 255 1
7.02314472198486328 6.1664271354675293 2.2237401008605957 190 153 112 255 1
7.02091884613037109 6.17620468139648438 2.2656247615814209 190 153 112 255 1
7.11187076568603516 5.95427656173706055 2.36284923553466797 190 153 112 255 1
7.12871837615966797 5.91962528228759766 2.36150503158569336 190 153 112 255 1
6.96638107299804688 6.31140899658203125 2.42516779899597168 190 153 112 255 1
7.19708442687988281 5.73511075973510742 2.24568009376525879 190 153 112 255 1
7.21716642379760742 5.67222309112548828 2.29345226287841797 190 153 112 255 1
7.11122417449951172 5.94520139694213867 2.03599309921264648 190 153 112 255 1
7.14707374572753906 5.85907554626464844 2.22218751907348633 190 153 112 255 1
7.13631963729858398 5.89596128463745117 2.25490880012512207 190 153 112 255 1
7.11782026290893555 5.87643623352050781 1.91261160373687744 190 153 112 255 1
7.12974119186401367 5.86942243576049805 1.9575728178024292 190 153 112 255 1
7.10638189315795898 5.92476844787597656 1.77580761909484863 190 153 112 255 1
7.11911439895629883 5.87519264221191406 1.84026408195495605 190 153 112 255 1
7.19774580001831055 5.71851730346679688 2.42272734642028809 190 153 112 255 1
7.21557331085205078 5.66733789443969727 2.40641880035400391 190 153 112 255 1
7.20956230163574219 5.69385814666748047 2.38135504722595215 190 153 112 255 1
7.07453060150146484 6.0003962516784668 1.5011059045791626 190 153 112 255 1
7.26126289367675781 5.55452108383178711 2.25495147705078125 190 153 112 255 1
7.2475433349609375 5.60089540481567383 2.24681568145751953 190 153 112 255 1
7.25497341156005859 5.56683111190795898 2.29242563247680664 190 153 112 255 1
7.23929977416992188 5.62374258041381836 2.30618429183959961 190 153 112 255 1
7.27305459976196289 5.53050708770751953 2.27015018463134766 190 153 112 255 1
7.03355169296264648 6.12127780914306641 2.12865400314331055 190 153 112 255 1
7.05723857879638672 6.06538820266723633 2.1212456226348877 190 153 112 255 1
7.04989004135131836 6.08136844635009766 2.08911561965942383 190 153 112 255 1
7.03054571151733398 6.12035560607910156 2.09516620635986328 190 153 112 255 1
7.01722860336303711 6.17368078231811523 2.03467440605163574 190 153 112 255 1
7.00402545928955078 6.20580768585205078 2.04097843170166016 190 153 112 255 1
7.03531837463378906 6.13061666488647461 2.06491255760192871 190 153 112 255 1
6.99833536148071289 6.2308506965637207 2.07308626174926758 190 153 112 255 1
7.15893125534057617 5.82205438613891602 2.48604512214660645 190 153 112 255 1
7.18368911743164062 5.76679611206054688 2.48861002922058105 190 153 112 255 1
7.18243169784545898 5.77786731719970703 2.53019595146179199 190 153 112 255 1
7.17221593856811523 5.80805015563964844 2.52973031997680664 190 153 112 255 1
7.06350469589233398 6.05578374862670898 2.00142312049865723 190 153 112 255 1
7.05554008483886719 6.08300161361694336 2.0461575984954834 190 153 112 255 1
7.03811264038085938 6.1063685417175293 2.00029635429382324 190 153 112 255 1
7.13665056228637695 5.88330316543579102 2.41292285919189453 190 153 112 255 1
7.15465450286865234 5.8385772705078125 2.39334392547607422 190 153 112 255 1
7.12706899642944336 5.92589712142944336 2.45479226112365723 190 153 112 255 1
6.9923553466796875 6.28162622451782227 2.50549769401550293 190 153 112 255 1
6.97371053695678711 6.31910514831542969 2.46333432197570801 190 153 112 255 1
7.07050228118896484 6.04304695129394531 2.06512856483459473 190 153 112 255 1
7.08406877517700195 6.01250743865966797 2.01579809188842773 190 153 112 255 1
7.10005855560302734 5.98079538345336914 2.05442118644714355 190 153 112 255 1
7.10583734512329102 5.92330312728881836 1.73702549934387207 190 153 112 255 1
7.1078338623046875 5.92655658721923828 1.55093860626220703 190 153 112 255 1
7.11210489273071289 5.87485122680664062 1.54035317897796631 190 153 112 255 1
7.00778865814208984 6.16753625869750977 1.70024764537811279 190 153 112 255 1
6.9976654052734375 6.18793439865112305 1.67292261123657227 190 153 112 255 1
7.2608637809753418 5.55717182159423828 2.11222267150878906 190 153 112 255 1
7.26706838607788086 5.54213333129882812 2.16564321517944336 190 153 112 255 1
7.25792980194091797 5.54457998275756836 2.07692861557006836 190 153 112 255 1
7.18326997756958008 5.7649998664855957 2.19499993324279785 190 153 112 255 1
7.17259550094604492 5.79566383361816406 2.22374987602233887 190 153 112 255 1
7.01175689697265625 6.20461463928222656 2.40683698654174805 190 153 112 255 1
7.00966978073120117 6.21749973297119141 2.44000005722045898 190 153 112 255 1
7.02073097229003906 6.18826961517333984 2.43489789962768555 190 153 112 255 1
7.0273747444152832 6.16809797286987305 2.45641112327575684 190 153 112 255 1
7.11838197708129883 5.906494140625 1.95568168163299561 190 153 112 255 1
7.12521076202392578 5.85250186920166016 1.71069514751434326 190 153 112 255 1
7.11339330673217773 5.87100076675415039 1.73065495491027832 190 153 112 255 1
7.03980016708374023 6.1224360466003418 2.38031649589538574 190 153 112 255 1
7.0413966178894043 6.12781476974487305 2.44905972480773926 190 153 112 255 1
7.06330251693725586 6.06322956085205078 2.44915556907653809 190 153 112 255 1
7.05377626419067383 6.10515975952148438 2.47163534164428711 190 153 112 255 1
6.97788333892822266 6.31310415267944336 2.07512164115905762 190 153 112 255 1
6.98061180114746094 6.28396272659301758 2.10385370254516602 190 153 112 255 1
6.99166488647460938 6.25096559524536133 2.1138763427734375 190 153 112 255 1
7.28423690795898438 5.49383449554443359 2.17900753021240234 190 153 112 255 1
7.27533483505249023 5.52683305740356445 2.22511649131774902 190 153 112 255 1
6.98645496368408203 6.25471973419189453 1.90017044544219971 190 153 112 255 1
6.9678807258605957 6.32268333435058594 1.80861902236938477 190 153 112 255 1
6.97417783737182617 6.29523372650146484 1.94590270519256592 190 153 112 255 1
6.97379255294799805 6.31321954727172852 1.86212456226348877 190 153 112 255 1
6.97674465179443359 6.28612470626831055 1.87481486797332764 190 153 112 255 1
6.96657800674438477 6.32525014877319336 1.85605692863464355 190 153 112 255 1
7.09589576721191406 5.95372438430786133 1.60082566738128662 190 153 112 255 1
7.0760498046875 6.01215982437133789 1.6251380443572998 190 153 112 255 1
7.09506893157958984 5.95152568817138672 1.64937996864318848 190 153 112 255 1
7.08071804046630859 6.03277397155761719 2.43562960624694824 190 153 112 255 1
7.05840349197387695 6.07821321487426758 2.39653873443603516 190 153 112 255 1
7.08299398422241211 6.02315855026245117 2.39116382598876953 190 153 112 255 1
7.10648870468139648 5.98363113403320312 2.45627140998840332 190 153 112 255 1
7.06533527374267578 6.05908346176147461 2.3149573802947998 190 153 112 255 1
7.06589031219482422 6.06483936309814453 2.35647821426391602 190 153 112 255 1
6.97576475143432617 6.31503152847290039 2.15216565132141113 190 153 112 255 1
6.96880483627319336 6.32710742950439453 2.09504389762878418 190 153 112 255 1
7.2767338752746582 5.50992012023925781 2.10158920288085938 190 153 112 255 1
7.06363630294799805 6.04416418075561523 1.63333773612976074 190 153 112 255 1
7.08052539825439453 5.99151420593261719 1.56830692291259766 190 153 112 255 1
7.05843210220336914 6.04242086410522461 1.65981400012969971 190 153 112 255 1
7.15206432342529297 5.85034942626953125 2.46704196929931641 190 153 112 255 1
7.13572597503662109 5.89081478118896484 2.50028753280639648 190 153 112 255 1
7.14197921752929688 5.8645176887512207 2.53677940368652344 190 153 112 255 1
7.14771175384521484 5.84109067916870117 2.50995564460754395 190 153 112 255 1
7.03432655334472656 6.13500356674194336 2.30261850357055664 190 153 112 255 1
6.97406339645385742 6.28087520599365234 1.51728403568267822 190 153 112 255 1
6.99668121337890625 6.22731971740722656 1.55647456645965576 190 153 112 255 1
6.97406339645385742 6.30471467971801758 1.52537262439727783 190 153 112 255 1
6.98121547698974609 6.27789640426635742 1.55320644378662109 190 153 112 255 1
6.97262668609619141 6.28499221801757812 1.58949959278106689 190 153 112 255 1
7.01134586334228516 6.18119955062866211 1.85593748092651367 190 153 112 255 1
7.00443029403686523 6.20459890365600586 1.84167921543121338 190 153 112 255 1
7.01251125335693359 6.17490863800048828 1.920096755027771 190 153 112 255 1
7.15978193283081055 5.82750034332275391 2.28375005722045898 190 153 112 255 1
7.18596458435058594 5.75586414337158203 2.29274344444274902 190 153 112 255 1
7.04475259780883789 6.07757091522216797 1.69296789169311523 190 153 112 255 1
6.97633552551269531 6.30742168426513672 2.43949341773986816 190 153 112 255 1
7.00240850448608398 6.2447962760925293 2.44802689552307129 190 153 112 255 1
6.98516035079956055 6.29072141647338867 2.40489435195922852 190 153 112 255 1
7.13911724090576172 5.85557031631469727 1.85487711429595947 190 153 112 255 1
7.12067222595214844 5.88476896286010742 1.87125146389007568 190 153 112 255 1
7.19219779968261719 5.71959352493286133 2.04190707206726074 190 153 112 255 1
6.98682260513305664 6.28228044509887695 2.23355960845947266 190 153 112 255 1
7.00122308731079102 6.22347545623779297 2.2583916187286377 190 153 112 255 1
7.01640987396240234 6.19124984741210938 2.3125 190 153 112 255 1
7.01346635818481445 6.17450714111328125 1.54924678802490234 190 153 112 255 1
7.03194665908813477 6.11433219909667969 1.85274600982666016 190 153 112 255 1
6.96650934219360352 6.32696771621704102 2.18042755126953125 190 153 112 255 1
6.97031497955322266 6.31302785873413086 1.7876741886138916 190 153 112 255 1
6.984771728515625 6.24989843368530273 1.84276938438415527 190 153 112 255 1
6.97435188293457031 6.27965974807739258 1.79175055027008057 190 153 112 255 1
6.99187040328979492 6.24296998977661133 1.80358922481536865 190 153 112 255 1
6.97295761108398438 6.28543233871459961 1.83027219772338867 190 153 112 255 1
7.12024831771850586 5.88015556335449219 1.98882126808166504 190 153 112 255 1
7.11565065383911133 5.91583824157714844 2.01121807098388672 190 153 112 255 1
7.12652063369750977 5.89433002471923828 2.080474853515625 190 153 112 255 1
7.14845418930053711 5.82408428192138672 2.03510951995849609 190 153 112 255 1
7.12263822555541992 5.88826799392700195 2.03237771987915039 190 153 112 255 1
7.22356271743774414 5.65552806854248047 2.4843597412109375 190 153 112 255 1
7.23871040344238281 5.62086200714111328 2.42179012298583984 190 153 112 255 1
7.21878576278686523 5.6653289794921875 2.43033719062805176 190 153 112 255 1
7.22858524322509766 5.63047361373901367 2.48493003845214844 190 153 112 255 1
7.00066947937011719 6.22075128555297852 2.17300534248352051 190 153 112 255 1
7.01396656036376953 6.19184350967407227 2.19092202186584473 190 153 112 255 1
7.1017909049987793 5.97761964797973633 2.28664994239807129 190 153 112 255 1
7.16772365570068359 5.80997419357299805 2.31410646438598633 190 153 112 255 1
7.13379621505737305 5.89687347412109375 2.34232950210571289 190 153 112 255 1
7.11390066146850586 5.8744206428527832 1.57772016525268555 190 153 112 255 1
7.11633491516113281 5.93959188461303711 2.20837116241455078 190 153 112 255 1
7.13018941879272461 5.90436935424804688 2.19356918334960938 190 153 112 255 1
7.07552623748779297 6.03773880004882812 2.28731226921081543 190 153 112 255 1
7.06960773468017578 6.04638957977294922 2.24624967575073242 190 153 112 255 1
7.03217267990112305 6.11011123657226562 1.94036722183227539 190 153 112 255 1
7.12051057815551758 5.92806148529052734 2.24926424026489258 190 153 112 255 1
7.13981294631958008 5.88094186782836914 2.30492854118347168 190 153 112 255 1
7.11866426467895508 5.92047595977783203 2.06403350830078125 190 153 112 255 1
7.11112737655639648 5.94289493560791016 2.12083101272583008 190 153 112 255 1
6.97810268402099609 6.32170915603637695 2.24081921577453613 190 153 112 255 1
7.12732505798339844 5.92249965667724609 2.40124988555908203 190 153 112 255 1
7.11755657196044922 5.94190740585327148 2.47802329063415527 190 153 112 255 1
7.00947809219360352 6.19395065307617188 2.09435653686523438 190 153 112 255 1
7.01260042190551758 6.19398117065429688 2.13423919677734375 190 153 112 255 1
7.20900869369506836 5.69672346115112305 2.47233128547668457 190 153 112 255 1
7.19553804397583008 5.69904708862304688 2.53286242485046387 190 153 112 255 1
7.19875431060791016 5.73299217224121094 2.4995262622833252 190 153 112 255 1
7.19912147521972656 5.74635410308837891 2.52138185501098633 190 153 112 255 1
7.20485734939575195 5.70162677764892578 2.50676059722900391 190 153 112 255 1
6.96565341949462891 6.32531452178955078 1.95992279052734375 190 153 112 255 1
7.02782726287841797 6.17922258377075195 2.48712277412414551 190 153 112 255 1
7.01318025588989258 6.21544933319091797 2.49173617362976074 190 153 112 255 1
7.24054288864135742 5.62661075592041016 2.23814272880554199 190 153 112 255 1
7.24255657196044922 5.62128067016601562 2.28377985954284668 190 153 112 255 1
7.20105266571044922 5.72213315963745117 2.31614518165588379 190 153 112 255 1
7.2303767204284668 5.63113546371459961 2.45363783836364746 190 153 112 255 1
7.21655988693237305 5.6306147575378418 2.50995969772338867 190 153 112 255 1
7.23900651931762695 5.59520864486694336 2.4960782527923584 190 153 112 255 1
7.09212255477905273 5.96664667129516602 1.73729801177978516 190 153 112 255 1
7.09788322448730469 5.94533538818359375 1.68335163593292236 190 153 112 255 1
7.09680604934692383 5.94550037384033203 1.71237277984619141 190 153 112 255 1
7.10595607757568359 5.94886398315429688 2.08896327018737793 190 153 112 255 1
7.10247087478637695 5.96499061584472656 2.15794515609741211 190 153 112 255 1
7.0872950553894043 5.9856715202331543 2.08579349517822266 190 153 112 255 1
7.098663330078125 5.98379611968994141 2.24953126907348633 190 153 112 255 1
7.26825046539306641 5.5389552116394043 2.32754850387573242 190 153 112 255 1
7.25361537933349609 5.56368684768676758 2.3883366584777832 190 153 112 255 1
7.27604532241821289 5.52060222625732422 2.38165783882141113 190 153 112 255 1
7.25984573364257812 5.54326581954956055 2.40725469589233398 190 153 112 255 1
7.06462430953979492 6.04916620254516602 1.96861207485198975 190 153 112 255 1
6.99264621734619141 6.27421903610229492 2.28118729591369629 190 153 112 255 1
6.98839569091796875 6.28475332260131836 2.34477710723876953 190 153 112 255 1
6.9775238037109375 6.3156285285949707 2.3042452335357666 190 153 112 255 1
7.27540826797485352 5.51248502731323242 2.44100761413574219 190 153 112 255 1
7.06561279296875 6.03309392929077148 1.93080449104309082 190 153 112 255 1
7.05064773559570312 6.06601238250732422 1.93207299709320068 190 153 112 255 1
7.06467676162719727 6.03881978988647461 1.90360534191131592 190 153 112 255 1
7.02871894836425781 6.12196254730224609 1.70674896240234375 190 153 112 255 1
7.27285385131835938 5.5135350227355957 2.50759673118591309 190 153 112 255 1
7.23527860641479492 5.54524803161621094 2.52093052864074707 190 153 112 255 1
7.25479936599731445 5.56430244445800781 2.49036335945129395 190 153 112 255 1
7.26377534866333008 5.5558934211730957 2.46744608879089355 190 153 112 255 1
7.23555803298950195 5.61283016204833984 2.55916643142700195 190 153 112 255 1
7.23703479766845703 5.57319307327270508 2.51648449897766113 190 153 112 255 1
7.25860595703125 5.52622413635253906 2.52749729156494141 190 153 112 255 1
7.27231979370117188 5.51027297973632812 2.46740317344665527 190 153 112 255 1
7.21523904800415039 5.66501140594482422 2.03842711448669434 190 153 112 255 1
7.22909355163574219 5.62066268920898438 2.03111052513122559 190 153 112 255 1
6.97405481338500977 6.3205418586730957 2.00622749328613281 190 153 112 255 1
7.00490236282348633 6.2170557975769043 2.29516434669494629 190 153 112 255 1
7.00793981552124023 6.22210979461669922 2.3796699047088623 190 153 112 255 1
7.04024839401245117 6.11551809310913086 2.33142232894897461 190 153 112 255 1
7.02182292938232422 6.18359804153442383 2.3562464714050293 190 153 112 255 1
7.06166410446166992 6.04663848876953125 1.57821834087371826 190 153 112 255 1
7.06119489669799805 6.03003025054931641 1.54658639430999756 190 153 112 255 1
7.06133890151977539 6.01896142959594727 1.52302980422973633 190 153 112 255 1
7.02936267852783203 6.0464634895324707 1.51424694061279297 190 153 112 255 1
6.97426366806030273 6.28389501571655273 1.620078444480896 190 153 112 255 1
6.97682809829711914 6.305389404296875 1.56341373920440674 190 153 112 255 1
6.99005126953125 6.23315906524658203 1.63499999046325684 190 153 112 255 1
6.97215652465820312 6.31356430053710938 1.61398434638977051 190 153 112 255 1
6.96777582168579102 6.30755329132080078 1.6495283842086792 190 153 112 255 1
6.97055530548095703 6.28335285186767578 1.6580655574798584 190 153 112 255 1
7.10537624359130859 5.97995805740356445 2.4901125431060791 190 153 112 255 1
7.10834026336669922 5.98569154739379883 2.53441905975341797 190 153 112 255 1
7.0875244140625 6.0200047492980957 2.51580548286437988 190 153 112 255 1
7.08952713012695312 6.02242040634155273 2.55965995788574219 190 153 112 255 1
7.046417236328125 6.07899761199951172 1.89103376865386963 190 153 112 255 1
7.18615961074829102 5.75930070877075195 2.3721771240234375 190 153 112 255 1
7.09517383575439453 5.97737026214599609 1.97149217128753662 190 153 112 255 1
7.10392856597900391 5.94468069076538086 1.91024494171142578 190 153 112 255 1
7.08247661590576172 5.99113035202026367 1.94054758548736572 190 153 112 255 1
7.10384607315063477 5.95305347442626953 2.00343751907348633 190 153 112 255 1
7.10993576049804688 5.94368982315063477 1.97219240665435791 190 153 112 255 1
7.23815298080444336 5.63305568695068359 2.18507122993469238 190 153 112 255 1
6.99575233459472656 6.25521087646484375 2.35508918762207031 190 153 112 255 1
7.0919189453125 5.99383401870727539 2.18312501907348633 190 153 112 255 1
7.04234790802001953 6.09625005722045898 1.60500001907348633 190 153 112 255 1
7.03612661361694336 6.10807991027832031 1.64536952972412109 190 153 112 255 1
6.97993993759155273 6.29763936996459961 2.17830252647399902 190 153 112 255 1
7.00251483917236328 6.22721052169799805 2.20838475227355957 190 153 112 255 1
6.97877407073974609 6.31347322463989258 2.21726846694946289 190 153 112 255 1
7.03827953338623047 6.10460996627807617 1.77294754981994629 190 153 112 255 1
7.02664518356323242 6.12685632705688477 1.73989701271057129 190 153 112 255 1
7.16219043731689453 5.81548833847045898 2.35125279426574707 190 153 112 255 1
7.1442413330078125 5.86919355392456055 2.36272811889648438 190 153 112 255 1
7.17891931533813477 5.77317190170288086 2.33719849586486816 190 153 112 255 1
6.97125387191772461 6.31466865539550781 1.9492870569229126 190 153 112 255 1
6.99105215072631836 6.25324487686157227 1.94418549537658691 190 153 112 255 1
7.00097131729125977 6.22585058212280273 1.99406719207763672 190 153 112 255 1
7.05962610244750977 6.04888725280761719 1.71304655075073242 190 153 112 255 1
7.07432699203491211 6.0014495849609375 1.68661761283874512 190 153 112 255 1
7.05206918716430664 6.07419157028198242 1.76163530349731445 190 153 112 255 1
7.07596349716186523 5.99946403503417969 1.73291862010955811 190 153 112 255 1
7.03142356872558594 6.12793827056884766 1.97629404067993164 190 153 112 255 1
7.00519180297851562 6.203460693359375 1.94910168647766113 190 153 112 255 1
7.0152277946472168 6.17423772811889648 1.98650157451629639 190 153 112 255 1
7.24741983413696289 5.58057308197021484 2.44844484329223633 190 153 112 255 1
6.9837498664855957 6.23966217041015625 1.69760799407958984 190 153 112 255 1
6.96747207641601562 6.30785131454467773 1.7562028169631958 190 153 112 255 1
6.97081232070922852 6.28480434417724609 1.73150455951690674 190 153 112 255 1
6.96678686141967773 6.28255796432495117 1.69046890735626221 190 153 112 255 1
6.98800134658813477 6.2248530387878418 1.7088472843170166 190 153 112 255 1
7.01604461669921875 6.16721916198730469 1.64473092555999756 190 153 112 255 1
7.02177858352661133 6.13641977310180664 1.67202615737915039 190 153 112 255 1
6.99005460739135742 6.22164154052734375 1.6619725227355957 190 153 112 255 1
7.1123042106628418 5.972564697265625 2.55468392372131348 190 153 112 255 1
7.04308795928955078 6.18517208099365234 2.67687439918518066 190 153 112 255 1
7.04712915420532227 6.20810413360595703 2.66018247604370117 190 153 112 255 1
7.0401911735534668 6.21288537979125977 2.68500566482543945 190 153 112 255 1
7.20143508911132812 5.67177295684814453 2.53373050689697266 190 153 112 255 1
7.19581222534179688 5.7496795654296875 2.54887008666992188 190 153 112 255 1
7.19700241088867188 5.71844148635864258 2.58112263679504395 190 153 112 255 1
6.97538280487060547 6.33598232269287109 2.67113566398620605 190 153 112 255 1
6.96463871002197266 6.39022541046142578 2.65715122222900391 190 153 112 255 1
6.97338199615478516 6.3790593147277832 2.69013357162475586 190 153 112 255 1
6.96894025802612305 6.35873270034790039 2.64128589630126953 190 153 112 255 1
6.98957633972167969 6.33780813217163086 2.70519828796386719 190 153 112 255 1
7.21004915237426758 5.64375829696655273 2.56311941146850586 190 153 112 255 1
7.11312055587768555 5.97229814529418945 2.60793972015380859 190 153 112 255 1
7.04950428009033203 6.12933063507080078 2.55884766578674316 190 153 112 255 1
7.04417085647583008 6.13230657577514648 2.60637807846069336 190 153 112 255 1
7.14855241775512695 5.85466814041137695 2.56675052642822266 190 153 112 255 1
7.13565349578857422 5.89230251312255859 2.58552217483520508 190 153 112 255 1
7.13273811340332031 5.89294815063476562 2.55230808258056641 190 153 112 255 1
7.13124942779541016 5.92523288726806641 2.58678483963012695 190 153 112 255 1
7.1560215950012207 5.84313392639160156 2.59763693809509277 190 153 112 255 1
7.15076923370361328 5.88526058197021484 2.61543583869934082 190 153 112 255 1
7.08662080764770508 6.06153011322021484 2.63301563262939453 190 153 112 255 1
7.08665657043457031 6.01863861083984375 2.64514565467834473 190 153 112 255 1
7.08269453048706055 6.06474161148071289 2.65399265289306641 190 153 112 255 1
7.1867213249206543 5.78249645233154297 2.57314062118530273 190 153 112 255 1
7.17268228530883789 5.81884479522705078 2.60504794120788574 190 153 112 255 1
6.99652624130249023 6.26306247711181641 2.5406029224395752 190 153 112 255 1
7.0236201286315918 6.22121381759643555 2.63764858245849609 190 153 112 255 1
6.95680141448974609 6.38207530975341797 2.52244997024536133 190 153 112 255 1
6.97457313537597656 6.34044981002807617 2.60428786277770996 190 153 112 255 1
7.05273818969726562 6.15552568435668945 2.65737509727478027 190 153 112 255 1
7.0517735481262207 6.10821151733398438 2.65704751014709473 190 153 112 255 1
7.06267833709716797 6.09129762649536133 2.63195395469665527 190 153 112 255 1
7.01569652557373047 6.21834325790405273 2.53909754753112793 190 153 112 255 1
7.01435947418212891 6.22460317611694336 2.57234573364257812 190 153 112 255 1
6.98247194290161133 6.37878942489624023 2.71342992782592773 190 153 112 255 1
6.99827194213867188 6.3098902702331543 2.68732023239135742 190 153 112 255 1
