ply
format ascii 1.0
element vertex 600
property float x
property float y
property float z
property uchar red
property uchar green
property uchar blue
property uchar alpha
property uint label
end_header
1.81234061717987061 0.667743265628814697 2.38102531433105469 190 153 112 255 1
1.8108295202255249 0.68323826789855957 2.33392047882080078 190 153 112 255 1
1.82317817211151123 0.631190299987792969 2.41503286361694336 190 153 112 255 1
1.75974678993225098 0.84138566255569458 2.48581600189208984 190 153 112 255 1
1.758880615234375 0.815858662128448486 2.54179072380065918 190 153 112 255 1
1.53547859191894531 1.36705267429351807 2.01489090919494629 190 153 112 255 1
1.53620469570159912 1.36900639533996582 2.08556079864501953 190 153 112 255 1
1.84268283843994141 0.579999983310699463 2.31500005722045898 190 153 112 255 1
1.78270161151885986 0.75971144437789917 2.42292475700378418 190 153 112 255 1
1.75941729545593262 0.818288326263427734 2.37859344482421875 190 153 112 255 1
1.76730251312255859 0.801454484462738037 2.26172351837158203 190 153 112 255 1
1.61943662166595459 1.17219889163970947 2.19999980926513672 190 153 112 255 1
1.63700270652770996 1.12117266654968262 2.23346447944641113 190 153 112 255 1
1.64613842964172363 1.10341477394104004 2.1084599494934082 190 153 112 255 1
1.6836552619934082 1.01471471786499023 2.14564228057861328 190 153 112 255 1
1.66186034679412842 1.05943906307220459 2.08510422706604004 190 153 112 255 1
1.81236207485198975 0.667483270168304443 2.41369104385375977 190 153 112 255 1
1.81271994113922119 0.659684240818023682 2.46062493324279785 190 153 112 255 1
1.80098605155944824 0.692870199680328369 2.47970867156982422 190 153 112 255 1
1.79011452198028564 0.724535882472991943 2.41664791107177734 190 153 112 255 1
1.60618388652801514 1.215140700340271 1.79957175254821777 190 153 112 255 1
1.55636799335479736 1.33031809329986572 2.09970545768737793 190 153 112 255 1
1.54382991790771484 1.35153639316558838 2.0542452335357666 190 153 112 255 1
1.58207273483276367 1.26715123653411865 2.15749979019165039 190 153 112 255 1
1.56244277954101562 1.31811130046844482 2.14708161354064941 190 153 112 255 1
1.5692143440246582 1.30067205429077148 2.09281253814697266 190 153 112 255 1
1.5424114465713501 1.34946656227111816 2.12462258338928223 190 153 112 255 1
1.576302170753479 1.28089439868927002 2.23101902008056641 190 153 112 255 1
1.76352322101593018 0.827615797519683838 1.9735107421875 190 153 112 255 1
1.84125828742980957 0.604999959468841553 2.05500006675720215 190 153 112 255 1
1.83573150634765625 0.625779449939727783 1.9999535083770752 190 153 112 255 1
1.85369384288787842 0.555948317050933838 2.4496462345123291 190 153 112 255 1
1.83390128612518311 0.606417238712310791 2.41759967803955078 190 153 112 255 1
1.7410658597946167 0.877889573574066162 2.36156582832336426 190 153 112 255 1
1.57493269443511963 1.26854431629180908 2.33345890045166016 190 153 112 255 1
1.57928967475891113 1.25756025314331055 2.37595748901367188 190 153 112 255 1
1.58912038803100586 1.24172616004943848 2.34352326393127441 190 153 112 255 1
1.56424331665039062 1.31444072723388672 1.90102159976959229 190 153 112 255 1
1.55282461643218994 1.35439229011535645 1.87692177295684814 190 153 112 255 1
1.85608839988708496 0.546028375625610352 2.23193359375 190 153 112 255 1
1.84529781341552734 0.584103763103485107 2.25201845169067383 190 153 112 255 1
1.56751668453216553 1.29052054882049561 2.34791278839111328 190 153 112 255 1
1.84355795383453369 0.588750004768371582 2.171875 190 153 112 255 1
1.71224915981292725 0.953340828418731689 2.37615370750427246 190 153 112 255 1
1.71956324577331543 0.92886430025100708 2.42137551307678223 190 153 112 255 1
1.73400068283081055 0.883210837841033936 2.43748998641967773 190 153 112 255 1
1.71746575832366943 0.930132210254669189 2.45218348503112793 190 153 112 255 1
1.8104630708694458 0.675743520259857178 2.05224180221557617 190 153 112 255 1
1.81904292106628418 0.664737582206726074 2.01625227928161621 190 153 112 255 1
1.82932770252227783 0.636085748672485352 2.06852912902832031 190 153 112 255 1
1.80448126792907715 0.699754238128662109 2.02483963966369629 190 153 112 255 1
1.61702311038970947 1.18494510650634766 1.7037498950958252 190 153 112 255 1
1.61845040321350098 1.1857752799987793 1.77354335784912109 190 153 112 255 1
1.82879221439361572 0.620166182518005371 2.26626038551330566 190 153 112 255 1
1.82590925693511963 0.62855827808380127 2.3125 190 153 112 255 1
1.60242271423339844 1.20209121704101562 2.35648345947265625 190 153 112 255 1
1.77195131778717041 0.792728841304779053 1.99574136734008789 190 153 112 255 1
1.72881901264190674 0.899311959743499756 2.34235739707946777 190 153 112 255 1
1.72128331661224365 0.917643964290618896 2.31023287773132324 190 153 112 255 1
1.72400593757629395 0.907262563705444336 2.39716649055480957 190 153 112 255 1
1.59767591953277588 1.21645605564117432 2.42756414413452148 190 153 112 255 1
1.53925681114196777 1.3683246374130249 1.95514321327209473 190 153 112 255 1
1.66884410381317139 1.03764021396636963 2.35468578338623047 190 153 112 255 1
1.65114820003509521 1.08326435089111328 2.32261466979980469 190 153 112 255 1
1.66751527786254883 1.09728443622589111 2.04238462448120117 190 153 112 255 1
1.64295780658721924 1.11090385913848877 2.07764792442321777 190 153 112 255 1
1.58910775184631348 1.26381456851959229 1.7698826789855957 190 153 112 255 1
1.70604026317596436 0.963557124137878418 2.06256604194641113 190 153 112 255 1
1.74069118499755859 0.879225730895996094 2.0462498664855957 190 153 112 255 1
1.82178831100463867 0.635749757289886475 2.22690391540527344 190 153 112 255 1
1.65576958656311035 1.07483315467834473 2.19597339630126953 190 153 112 255 1
1.63250851631164551 1.14171040058135986 2.05522727966308594 190 153 112 255 1
1.65968143939971924 1.13369286060333252 2.02127575874328613 190 153 112 255 1
1.61738753318786621 1.18024206161499023 2.02865409851074219 190 153 112 255 1
1.82593166828155518 0.632394254207611084 2.14777946472167969 190 153 112 255 1
1.81531763076782227 0.668814301490783691 2.09241461753845215 190 153 112 255 1
1.80830955505371094 0.693425774574279785 2.12750005722045898 190 153 112 255 1
1.86444985866546631 0.570727884769439697 1.9712599515914917 190 153 112 255 1
1.73568177223205566 0.891184687614440918 2.23778915405273438 190 153 112 255 1
1.73301577568054199 0.895750701427459717 2.28607821464538574 190 153 112 255 1
1.6724092960357666 1.03909873962402344 2.18715095520019531 190 153 112 255 1
1.7096104621887207 0.953345239162445068 2.33597183227539062 190 153 112 255 1
1.68063855171203613 0.999531924724578857 2.38503217697143555 190 153 112 255 1
1.68678009510040283 0.997307717800140381 2.3541109561920166 190 153 112 255 1
1.57498812675476074 1.30191993713378906 1.66864907741546631 190 153 112 255 1
1.56601488590240479 1.32009851932525635 1.71644806861877441 190 153 112 255 1
1.55820560455322266 1.34175980091094971 1.80316567420959473 190 153 112 255 1
1.56125771999359131 1.3378300666809082 1.66086709499359131 190 153 112 255 1
1.6979295015335083 0.957500338554382324 2.4751131534576416 190 153 112 255 1
1.69053041934967041 0.983416318893432617 2.49838900566101074 190 153 112 255 1
1.63430249691009521 1.1315760612487793 2.33088541030883789 190 153 112 255 1
1.63216233253479004 1.12676453590393066 2.38796615600585938 190 153 112 255 1
1.61885738372802734 1.16663968563079834 2.32937479019165039 190 153 112 255 1
1.6201246976852417 1.16463351249694824 2.40518593788146973 190 153 112 255 1
1.7473595142364502 0.848208785057067871 2.29127907752990723 190 153 112 255 1
1.74698114395141602 0.849850594997406006 2.2185356616973877 190 153 112 255 1
1.60446047782897949 1.21172153949737549 2.24347162246704102 190 153 112 255 1
1.60612273216247559 1.20587778091430664 2.12796878814697266 190 153 112 255 1
1.78924775123596191 0.751897871494293213 1.99241113662719727 190 153 112 255 1
1.66450238227844238 1.05614888668060303 2.29473614692687988 190 153 112 255 1
1.64478647708892822 1.09703779220581055 2.27116727828979492 190 153 112 255 1
1.65841984748840332 1.06988179683685303 2.24660968780517578 190 153 112 255 1
1.63749516010284424 1.12544059753417969 2.29183673858642578 190 153 112 255 1
1.80572640895843506 0.684391975402832031 2.52344989776611328 190 153 112 255 1
1.60982513427734375 1.19999992847442627 2.07249999046325684 190 153 112 255 1
1.86547088623046875 0.524820625782012939 2.27583885192871094 190 153 112 255 1
1.74818325042724609 0.860492944717407227 2.01453113555908203 190 153 112 255 1
1.77432620525360107 0.783927321434020996 2.0474998950958252 190 153 112 255 1
1.77750658988952637 0.775111615657806396 2.09128117561340332 190 153 112 255 1
1.76091527938842773 0.827499985694885254 2.05499982833862305 190 153 112 255 1
1.71797430515289307 0.927242577075958252 2.24437475204467773 190 153 112 255 1
1.73492765426635742 0.898371219635009766 2.18354988098144531 190 153 112 255 1
1.64077520370483398 1.17914390563964844 1.99550652503967285 190 153 112 255 1
1.84165871143341064 0.588541865348815918 2.37012195587158203 190 153 112 255 1
1.57790422439575195 1.24589633941650391 2.41565990447998047 190 153 112 255 1
1.81628918647766113 0.664722800254821777 2.17062497138977051 190 153 112 255 1
1.67854392528533936 1.01499998569488525 2.29499983787536621 190 153 112 255 1
1.70412349700927734 0.962672829627990723 2.21687507629394531 190 153 112 255 1
1.69000542163848877 0.99374997615814209 2.25499987602233887 190 153 112 255 1
1.7676241397857666 0.779783368110656738 2.5584108829498291 190 153 112 255 1
1.82966518402099609 0.630788683891296387 2.5563504695892334 190 153 112 255 1
1.79065251350402832 0.734944522380828857 2.57311916351318359 190 153 112 255 1
1.84030246734619141 0.579973340034484863 2.61588478088378906 190 153 112 255 1
1.84049999713897705 0.5856894850730896 2.5789494514465332 190 153 112 255 1
1.83468377590179443 0.617657899856567383 2.61132287979125977 190 153 112 255 1
1.81729233264923096 0.651796162128448486 2.52103185653686523 190 153 112 255 1
1.81770014762878418 0.656216979026794434 2.59544086456298828 190 153 112 255 1
1.80995965003967285 0.674971461296081543 2.58127427101135254 190 153 112 255 1
0.225258305668830872 4.98449277877807617 2.52468180656433105 190 153 112 255 1
0.278899729251861572 4.84836483001708984 2.54476094245910645 190 153 112 255 1
0.283993542194366455 4.86104679107666016 2.52925443649291992 190 153 112 255 1
0.303805738687515259 4.83940982818603516 2.50205826759338379 190 153 112 255 1
0.293718427419662476 4.80159139633178711 2.5410761833190918 190 153 112 255 1
0.298574090003967285 4.748321533203125 2.54463744163513184 190 153 112 255 1
0.299683183431625366 4.77446651458740234 2.53911495208740234 190 153 112 255 1
0.333785861730575562 4.75537347793579102 2.44707655906677246 190 153 112 255 1
0.323822289705276489 4.78461456298828125 2.46190762519836426 190 153 112 255 1
0.3184376060962677 4.76308441162109375 2.5045931339263916 190 153 112 255 1
0.318487018346786499 4.78986644744873047 2.50143170356750488 190 153 112 255 1
0.258074462413787842 4.95487880706787109 2.50952959060668945 190 153 112 255 1
0.275037080049514771 4.93319559097290039 2.49246644973754883 190 153 112 255 1
0.22913205623626709 4.95308113098144531 2.56312274932861328 190 153 112 255 1
0.271853655576705933 4.89257669448852539 2.53285050392150879 190 153 112 255 1
0.274765968322753906 4.88298177719116211 2.54500627517700195 190 153 112 255 1
0.316920310258865356 4.82302951812744141 2.46399331092834473 190 153 112 255 1
0.297630876302719116 4.87217187881469727 2.47285127639770508 190 153 112 255 1
0.298954010009765625 4.84712839126586914 2.42772841453552246 190 153 112 255 1
0.213264480233192444 4.97301435470581055 2.55868268013000488 190 153 112 255 1
0.197774931788444519 4.97839593887329102 2.57448601722717285 190 153 112 255 1
0.252696186304092407 4.92656755447387695 2.5496973991394043 190 153 112 255 1
0.527103185653686523 4.14193630218505859 2.18871331214904785 190 153 112 255 1
0.504717767238616943 4.19997692108154297 2.20551514625549316 190 153 112 255 1
0.510477900505065918 4.17142391204833984 2.23221278190612793 190 153 112 255 1
0.542859315872192383 4.20592594146728516 2.1527097225189209 190 153 112 255 1
0.521737813949584961 4.17769289016723633 2.18368172645568848 190 153 112 255 1
0.504697024822235107 4.23245668411254883 2.21039080619812012 190 153 112 255 1
0.508271872997283936 4.21988439559936523 2.18449091911315918 190 153 112 255 1
0.493596255779266357 4.22231769561767578 2.23844122886657715 190 153 112 255 1
0.503149449825286865 4.18469429016113281 2.41498517990112305 190 153 112 255 1
0.540648281574249268 4.25376367568969727 2.14127421379089355 190 153 112 255 1
0.527040004730224609 4.16386270523071289 2.47729372978210449 190 153 112 255 1
0.491619318723678589 4.25304365158081055 2.28952717781066895 190 153 112 255 1
0.499658346176147461 4.2114253044128418 2.2820289134979248 190 153 112 255 1
0.491094738245010376 4.20930194854736328 2.40165281295776367 190 153 112 255 1
0.481283485889434814 4.39073419570922852 2.0995182991027832 190 153 112 255 1
0.499734312295913696 4.30565643310546875 2.14404082298278809 190 153 112 255 1
0.512072384357452393 4.35303592681884766 2.08986687660217285 190 153 112 255 1
0.442468434572219849 4.35891056060791016 2.2282111644744873 190 153 112 255 1
0.468335747718811035 4.31753253936767578 2.1772761344909668 190 153 112 255 1
0.518479108810424805 4.16830873489379883 2.38137125968933105 190 153 112 255 1
0.493434399366378784 4.23111915588378906 2.32424807548522949 190 153 112 255 1
0.50145953893661499 4.19274568557739258 2.33676385879516602 190 153 112 255 1
0.517223238945007324 4.15514564514160156 2.32252907752990723 190 153 112 255 1
0.465555101633071899 4.35967922210693359 2.13786220550537109 190 153 112 255 1
0.522120058536529541 4.12095880508422852 2.30302119255065918 190 153 112 255 1
0.539767205715179443 4.09289360046386719 2.31327271461486816 190 153 112 255 1
0.520968317985534668 4.15203142166137695 2.24473834037780762 190 153 112 255 1
0.546229541301727295 4.08316802978515625 2.26846981048583984 190 153 112 255 1
0.521394908428192139 4.16118955612182617 2.2770695686340332 190 153 112 255 1
0.54932701587677002 4.08840417861938477 2.41926169395446777 190 153 112 255 1
0.530385971069335938 4.12949752807617188 2.45276832580566406 190 153 112 255 1
0.533448517322540283 4.10967159271240234 2.45167994499206543 190 153 112 255 1
0.527386188507080078 4.12756061553955078 2.19985747337341309 190 153 112 255 1
0.470583915710449219 4.28659296035766602 2.23808479309082031 190 153 112 255 1
0.476193904876708984 4.27306747436523438 2.2598717212677002 190 153 112 255 1
0.456673562526702881 4.32386207580566406 2.21970057487487793 190 153 112 255 1
0.529747307300567627 4.1224513053894043 2.35215878486633301 190 153 112 255 1
0.518551468849182129 4.15544700622558594 2.40440273284912109 190 153 112 255 1
0.542317390441894531 4.11211967468261719 2.39668774604797363 190 153 112 255 1
0.492067396640777588 4.22899150848388672 2.36128759384155273 190 153 112 255 1
0.485841870307922363 4.26228904724121094 2.18636608123779297 190 153 112 255 1
0.469955921173095703 4.285247802734375 2.19980072975158691 190 153 112 255 1
0.568148612976074219 4.22277259826660156 2.11671710014343262 190 153 112 255 1
0.569887995719909668 4.14423370361328125 2.15048480033874512 190 153 112 255 1
0.615275561809539795 4.06680488586425781 2.13994884490966797 190 153 112 255 1
0.589729130268096924 4.11014747619628906 2.14757537841796875 190 153 112 255 1
0.549110472202301025 4.07521820068359375 2.3577735424041748 190 153 112 255 1
0.577153623104095459 4.02513694763183594 2.25771999359130859 190 153 112 255 1
0.567782998085021973 4.02983283996582031 2.30126762390136719 190 153 112 255 1
0.569467365741729736 4.04192686080932617 2.26028537750244141 190 153 112 255 1
0.557142674922943115 4.05819559097290039 2.25157785415649414 190 153 112 255 1
0.642737746238708496 4.00148630142211914 2.12264919281005859 190 153 112 255 1
0.608931779861450195 4.00961828231811523 2.15267467498779297 190 153 112 255 1
0.567897498607635498 4.06854438781738281 2.17590045928955078 190 153 112 255 1
0.548673570156097412 4.11396551132202148 2.1790616512298584 190 153 112 255 1
0.558772265911102295 4.07701492309570312 2.22797060012817383 190 153 112 255 1
0.532160937786102295 4.11419391632080078 2.25461816787719727 190 153 112 255 1
0.542741000652313232 4.09003639221191406 2.19607067108154297 190 153 112 255 1
0.55198979377746582 4.0608978271484375 2.32225513458251953 190 153 112 255 1
0.561366856098175049 4.05961990356445312 2.39142704010009766 190 153 112 255 1
0.566857039928436279 4.03828668594360352 2.33663630485534668 190 153 112 255 1
0.560079395771026611 4.06323909759521484 2.20081520080566406 190 153 112 255 1
0.571276545524597168 4.02449941635131836 2.20600342750549316 190 153 112 255 1
0.579779922962188721 4.01502132415771484 2.18105173110961914 190 153 112 255 1
0.574261963367462158 4.16697168350219727 2.14284896850585938 190 153 112 255 1
0.566659331321716309 4.19183349609375 2.13447165489196777 190 153 112 255 1
0.470206469297409058 4.29122066497802734 2.31563806533813477 190 153 112 255 1
0.477097243070602417 4.26225137710571289 2.33750319480895996 190 153 112 255 1
0.464660614728927612 4.28972959518432617 2.3758847713470459 190 153 112 255 1
0.469725877046585083 4.32165145874023438 2.48079800605773926 190 153 112 255 1
0.400658637285232544 4.50967741012573242 2.38274931907653809 190 153 112 255 1
0.407196342945098877 4.49881744384765625 2.30761361122131348 190 153 112 255 1
0.425844550132751465 4.42088699340820312 2.41160225868225098 190 153 112 255 1
0.41916540265083313 4.43567132949829102 2.44485735893249512 190 153 112 255 1
0.416018694639205933 4.46216249465942383 2.44868993759155273 190 153 112 255 1
0.427730023860931396 4.43900203704833984 2.47801351547241211 190 153 112 255 1
0.434370815753936768 4.41096830368041992 2.2258906364440918 190 153 112 255 1
0.425709247589111328 4.44916009902954102 2.18432283401489258 190 153 112 255 1
0.423798978328704834 4.43948650360107422 2.28987526893615723 190 153 112 255 1
0.412816673517227173 4.46953487396240234 2.30342292785644531 190 153 112 255 1
0.413524001836776733 4.45827484130859375 2.23126387596130371 190 153 112 255 1
0.434724003076553345 4.39486980438232422 2.27071523666381836 190 153 112 255 1
0.497343689203262329 4.21680259704589844 2.4534609317779541 190 153 112 255 1
0.507865488529205322 4.17770242691040039 2.45583868026733398 190 153 112 255 1
0.45909494161605835 4.32216119766235352 2.32360315322875977 190 153 112 255 1
0.447162091732025146 4.36112022399902344 2.34988522529602051 190 153 112 255 1
0.462474793195724487 4.32749080657958984 2.3637239933013916 190 153 112 255 1
0.442062586545944214 4.36289691925048828 2.40406608581542969 190 153 112 255 1
0.440605431795120239 4.38681745529174805 2.35745787620544434 190 153 112 255 1
0.414773285388946533 4.47890186309814453 2.19829249382019043 190 153 112 255 1
0.392374128103256226 4.53421449661254883 2.22877311706542969 190 153 112 255 1
0.391044914722442627 4.53105020523071289 2.2869565486907959 190 153 112 255 1
0.403882622718811035 4.49923372268676758 2.26902270317077637 190 153 112 255 1
0.481891751289367676 4.2778162956237793 2.48921704292297363 190 153 112 255 1
0.493118345737457275 4.248382568359375 2.50635313987731934 190 153 112 255 1
0.503559410572052002 4.20751810073852539 2.48607707023620605 190 153 112 255 1
0.444793045520782471 4.34965085983276367 2.52409505844116211 190 153 112 255 1
0.461719274520874023 4.32533359527587891 2.3954460620880127 190 153 112 255 1
0.432581841945648193 4.41018295288085938 2.4468080997467041 190 153 112 255 1
0.455864667892456055 4.32917499542236328 2.44052743911743164 190 153 112 255 1
0.438767522573471069 4.37015438079833984 2.44569873809814453 190 153 112 255 1
0.452321469783782959 4.37113094329833984 2.48027515411376953 190 153 112 255 1
0.449597716331481934 4.38948822021484375 2.471923828125 190 153 112 255 1
0.487876951694488525 4.25538873672485352 2.41066288948059082 190 153 112 255 1
0.482047349214553833 4.27919197082519531 2.46915674209594727 190 153 112 255 1
0.481582105159759521 4.24714899063110352 2.44768023490905762 190 153 112 255 1
0.48009037971496582 4.26710605621337891 2.44170379638671875 190 153 112 255 1
0.496179133653640747 4.24407386779785156 2.47522473335266113 190 153 112 255 1
0.446491628885269165 4.38954353332519531 2.17835164070129395 190 153 112 255 1
0.447125822305679321 4.36142396926879883 2.19342732429504395 190 153 112 255 1
0.469513118267059326 4.28022861480712891 2.51907229423522949 190 153 112 255 1
0.449541389942169189 4.31643199920654297 2.52432107925415039 190 153 112 255 1
0.399196505546569824 4.49874067306518555 2.5253899097442627 190 153 112 255 1
0.410073965787887573 4.51579618453979492 2.46761846542358398 190 153 112 255 1
0.417449921369552612 4.43629932403564453 2.38018989562988281 190 153 112 255 1
0.409624278545379639 4.46653127670288086 2.35206747055053711 190 153 112 255 1
0.403829216957092285 4.50695085525512695 2.4405062198638916 190 153 112 255 1
0.4076404869556427 4.47701454162597656 2.3847501277923584 190 153 112 255 1
0.41045147180557251 4.49162769317626953 2.47037076950073242 190 153 112 255 1
0.405963242053985596 4.46992826461791992 2.41282200813293457 190 153 112 255 1
0.421976864337921143 4.38833475112915039 2.5312035083770752 190 153 112 255 1
0.425611376762390137 4.44953584671020508 2.4985806941986084 190 153 112 255 1
0.443267375230789185 4.39623498916625977 2.49828410148620605 190 153 112 255 1
0.417530685663223267 4.44050407409667969 2.5280907154083252 190 153 112 255 1
0.464002817869186401 4.31529045104980469 2.28717947006225586 190 153 112 255 1
0.444242000579833984 4.3718719482421875 2.30799007415771484 190 153 112 255 1
0.445017457008361816 4.35474729537963867 2.27502012252807617 190 153 112 255 1
0.391485244035720825 4.53171157836914062 2.3850862979888916 190 153 112 255 1
0.392879307270050049 4.53636741638183594 2.3233182430267334 190 153 112 255 1
0.394489258527755737 4.52898836135864258 2.51417636871337891 190 153 112 255 1
0.380420207977294922 4.52639198303222656 2.53665995597839355 190 153 112 255 1
0.470446944236755371 4.29140186309814453 2.40282440185546875 190 153 112 255 1
0.292879015207290649 4.90895175933837891 2.17339706420898438 190 153 112 255 1
0.330478549003601074 4.7375640869140625 2.33969664573669434 190 153 112 255 1
0.338602602481842041 4.72797346115112305 2.28644084930419922 190 153 112 255 1
0.215587198734283447 5.0196528434753418 2.52027177810668945 190 153 112 255 1
0.250166118144989014 4.99684858322143555 2.49266338348388672 190 153 112 255 1
0.318051129579544067 4.79906511306762695 2.26061105728149414 190 153 112 255 1
0.317077159881591797 4.77285051345825195 2.37756919860839844 190 153 112 255 1
0.330873399972915649 4.73620128631591797 2.41995596885681152 190 153 112 255 1
0.349089473485946655 4.69994926452636719 2.44287490844726562 190 153 112 255 1
0.315780758857727051 4.78350400924682617 2.42646408081054688 190 153 112 255 1
0.355185806751251221 4.66374826431274414 2.19082522392272949 190 153 112 255 1
0.351820677518844604 4.6716151237487793 2.22223114967346191 190 153 112 255 1
0.295055598020553589 4.87253618240356445 2.23718976974487305 190 153 112 255 1
0.302672863006591797 4.85280895233154297 2.18173551559448242 190 153 112 255 1
0.338745027780532837 4.74292469024658203 2.47595930099487305 190 153 112 255 1
0.322906523942947388 4.71046161651611328 2.53726601600646973 190 153 112 255 1
0.238519862294197083 5.05927753448486328 2.48717403411865234 190 153 112 255 1
0.234140664339065552 5.1012115478515625 2.25472545623779297 190 153 112 255 1
0.25777512788772583 5.01235580444335938 2.19133615493774414 190 153 112 255 1
0.261168509721755981 4.99323940277099609 2.36623597145080566 190 153 112 255 1
0.248475596308708191 5.03376245498657227 2.36519169807434082 190 153 112 255 1
0.354911088943481445 4.70263290405273438 2.47333121299743652 190 153 112 255 1
0.331934422254562378 4.69229030609130859 2.52991724014282227 190 153 112 255 1
0.359431326389312744 4.66154718399047852 2.47984480857849121 190 153 112 255 1
0.343905717134475708 4.65857887268066406 2.54495143890380859 190 153 112 255 1
0.365278333425521851 4.63814687728881836 2.49956321716308594 190 153 112 255 1
0.309849977493286133 4.83598995208740234 2.25910615921020508 190 153 112 255 1
0.311858296394348145 4.81959342956542969 2.30247187614440918 190 153 112 255 1
0.294894814491271973 4.87249040603637695 2.31353330612182617 190 153 112 255 1
0.288024187088012695 4.88565874099731445 2.38327765464782715 190 153 112 255 1
0.292967617511749268 4.8892059326171875 2.34180808067321777 190 153 112 255 1
0.280359357595443726 4.93955564498901367 2.36005830764770508 190 153 112 255 1
0.38379967212677002 4.54634761810302734 2.4438786506652832 190 153 112 255 1
0.392051100730895996 4.55002117156982422 2.47821998596191406 190 153 112 255 1
0.318140029907226562 4.78763198852539062 2.31955838203430176 190 153 112 255 1
0.330924332141876221 4.73726081848144531 2.38237261772155762 190 153 112 255 1
0.243480190634727478 5.06713199615478516 2.21155881881713867 190 153 112 255 1
0.256634235382080078 5.04901885986328125 2.16765427589416504 190 153 112 255 1
0.347481489181518555 4.69482755661010742 2.39598345756530762 190 153 112 255 1
0.349088042974472046 4.6674046516418457 2.42816948890686035 190 153 112 255 1
0.2368125319480896 5.1260380744934082 2.16835141181945801 190 153 112 255 1
0.268548786640167236 4.9691615104675293 2.19308567047119141 190 153 112 255 1
0.271301925182342529 4.96994352340698242 2.17061376571655273 190 153 112 255 1
0.376694530248641968 4.59621000289916992 2.23146462440490723 190 153 112 255 1
0.383191019296646118 4.58179712295532227 2.17990994453430176 190 153 112 255 1
0.385788828134536743 4.56354951858520508 2.23071074485778809 190 153 112 255 1
0.376147836446762085 4.60668182373046875 2.29468035697937012 190 153 112 255 1
0.354630053043365479 4.64850616455078125 2.31026768684387207 190 153 112 255 1
0.382794559001922607 4.57306766510009766 2.29738903045654297 190 153 112 255 1
0.381507694721221924 4.57061290740966797 2.33036684989929199 190 153 112 255 1
0.372896164655685425 4.58845806121826172 2.36823701858520508 190 153 112 255 1
0.378689587116241455 4.60532283782958984 2.33108925819396973 190 153 112 255 1
0.362671792507171631 4.62422418594360352 2.3866431713104248 190 153 112 255 1
0.386031806468963623 4.53974628448486328 2.3584904670715332 190 153 112 255 1
0.379988938570022583 4.56917238235473633 2.43148040771484375 190 153 112 255 1
0.372731387615203857 4.59467744827270508 2.42023515701293945 190 153 112 255 1
0.365202635526657104 4.64542722702026367 2.4533989429473877 190 153 112 255 1
0.367261141538619995 4.6215825080871582 2.4306640625 190 153 112 255 1
0.350176393985748291 4.62727880477905273 2.53553652763366699 190 153 112 255 1
0.380358755588531494 4.58669424057006836 2.49914765357971191 190 153 112 255 1
0.381615996360778809 4.62091350555419922 2.47463274002075195 190 153 112 255 1
0.387421011924743652 4.59067153930664062 2.46502828598022461 190 153 112 255 1
0.367202162742614746 4.57989835739135742 2.53355240821838379 190 153 112 255 1
0.284445315599441528 4.92478799819946289 2.44758248329162598 190 153 112 255 1
0.285995572805404663 4.88841009140014648 2.41676211357116699 190 153 112 255 1
0.274144411087036133 4.9478754997253418 2.41510653495788574 190 153 112 255 1
0.230652108788490295 5.10647487640380859 2.21899199485778809 190 153 112 255 1
0.24588090181350708 5.06005001068115234 2.30378079414367676 190 153 112 255 1
0.348655104637145996 4.69794416427612305 2.36528420448303223 190 153 112 255 1
0.353970468044281006 4.65530633926391602 2.35559487342834473 190 153 112 255 1
0.283836454153060913 4.93014049530029297 2.21550202369689941 190 153 112 255 1
0.284176677465438843 4.93688726425170898 2.2624201774597168 190 153 112 255 1
0.2860831618309021 4.91525888442993164 2.29552626609802246 190 153 112 255 1
0.325819849967956543 4.76984214782714844 2.23317432403564453 190 153 112 255 1
0.350716978311538696 4.69494342803955078 2.19181656837463379 190 153 112 255 1
0.338582068681716919 4.72968816757202148 2.23734378814697266 190 153 112 255 1
0.311721056699752808 4.82346343994140625 2.22185516357421875 190 153 112 255 1
0.322791993618011475 4.78855657577514648 2.18241453170776367 190 153 112 255 1
0.342011541128158569 4.7392120361328125 2.17832326889038086 190 153 112 255 1
0.362151563167572021 4.63057231903076172 2.24008750915527344 190 153 112 255 1
0.348115593194961548 4.68309497833251953 2.33296108245849609 190 153 112 255 1
0.345045208930969238 4.69728517532348633 2.28080534934997559 190 153 112 255 1
0.359101414680480957 4.64445829391479492 2.26821398735046387 190 153 112 255 1
0.299747318029403687 4.85155105590820312 2.35302424430847168 190 153 112 255 1
0.304538130760192871 4.84800529479980469 2.39230251312255859 190 153 112 255 1
0.312683433294296265 4.81277227401733398 2.37675309181213379 190 153 112 255 1
0.26072990894317627 5.00791025161743164 2.4421687126159668 190 153 112 255 1
0.24968796968460083 5.02104043960571289 2.4115595817565918 190 153 112 255 1
0.27512630820274353 4.96489715576171875 2.46814203262329102 190 153 112 255 1
0.24969443678855896 5.02526092529296875 2.48015499114990234 190 153 112 255 1
0.265534967184066772 4.99061298370361328 2.23845481872558594 190 153 112 255 1
0.271051406860351562 4.96813678741455078 2.31622743606567383 190 153 112 255 1
0.261450648307800293 5.00986528396606445 2.31186580657958984 190 153 112 255 1
0.311296612024307251 4.81255912780761719 2.42839694023132324 190 153 112 255 1
0.168677926063537598 5.02278804779052734 2.55981993675231934 190 153 112 255 1
0.171580448746681213 5.00728321075439453 2.56339168548583984 190 153 112 255 1
0.17401529848575592 4.9893035888671875 2.58833098411560059 190 153 112 255 1
0.14609159529209137 5.02358579635620117 2.58919167518615723 190 153 112 255 1
0.140848815441131592 5.00007343292236328 2.6072533130645752 190 153 112 255 1
0.201935306191444397 5.28493118286132812 2.38787055015563965 190 153 112 255 1
0.209106072783470154 5.18756246566772461 2.41579747200012207 190 153 112 255 1
0.215895995497703552 5.14920759201049805 2.43213248252868652 190 153 112 255 1
0.211176961660385132 5.17271566390991211 2.45347118377685547 190 153 112 255 1
0.217855185270309448 5.18020820617675781 2.38451910018920898 190 153 112 255 1
0.213388532400131226 5.15689754486083984 2.39799976348876953 190 153 112 255 1
0.256265133619308472 5.24017429351806641 2.35371661186218262 190 153 112 255 1
0.246722981333732605 5.22777366638183594 2.37135863304138184 190 153 112 255 1
0.273452043533325195 5.21277570724487305 2.36193275451660156 190 153 112 255 1
0.230419948697090149 5.28113031387329102 2.37469911575317383 190 153 112 255 1
0.248194783926010132 5.17670917510986328 2.35948038101196289 190 153 112 255 1
0.258128106594085693 5.13968515396118164 2.33298397064208984 190 153 112 255 1
0.153608188033103943 5.39230632781982422 2.49085497856140137 190 153 112 255 1
0.152469590306282043 5.36950492858886719 2.52405357360839844 190 153 112 255 1
0.129298880696296692 5.44876623153686523 2.51306366920471191 190 153 112 255 1
0.147211059927940369 5.40713405609130859 2.52479386329650879 190 153 112 255 1
0.247094601392745972 5.06895971298217773 2.45782709121704102 190 153 112 255 1
0.143903478980064392 5.43602800369262695 2.44770193099975586 190 153 112 255 1
0.13371238112449646 5.4625859260559082 2.4630284309387207 190 153 112 255 1
0.122818075120449066 5.48126602172851562 2.4774174690246582 190 153 112 255 1
0.157706841826438904 5.36896276473999023 2.47274374961853027 190 153 112 255 1
0.168580427765846252 5.32601499557495117 2.43485069274902344 190 153 112 255 1
0.183018922805786133 5.30479192733764648 2.4055781364440918 190 153 112 255 1
0.178489759564399719 5.33934259414672852 2.4108123779296875 190 153 112 255 1
0.181124404072761536 5.27756261825561523 2.44026827812194824 190 153 112 255 1
0.16222737729549408 5.36296415328979492 2.4382326602935791 190 153 112 255 1
0.210569590330123901 5.17540693283081055 2.48034381866455078 190 153 112 255 1
0.208720386028289795 5.1728672981262207 2.51587367057800293 190 153 112 255 1
0.223899468779563904 5.12312173843383789 2.5275428295135498 190 153 112 255 1
0.233701363205909729 5.11910724639892578 2.48643064498901367 190 153 112 255 1
0.230997011065483093 5.10855340957641602 2.3652498722076416 190 153 112 255 1
0.224994614720344543 5.09731864929199219 2.51006627082824707 190 153 112 255 1
0.198122605681419373 5.05602121353149414 2.54053711891174316 190 153 112 255 1
0.132146432995796204 5.44877243041992188 2.48067831993103027 190 153 112 255 1
0.11929667741060257 5.48174715042114258 2.55290102958679199 190 153 112 255 1
0.1195540651679039 5.48692941665649414 2.52660417556762695 190 153 112 255 1
0.121845312416553497 5.50871992111206055 2.51262140274047852 190 153 112 255 1
0.203564077615737915 5.22723865509033203 2.409637451171875 190 153 112 255 1
0.197580024600028992 5.22923851013183594 2.44301319122314453 190 153 112 255 1
0.271745443344116211 5.13109874725341797 2.31197118759155273 190 153 112 255 1
0.1541585773229599 5.38549995422363281 2.43619656562805176 190 153 112 255 1
0.171675845980644226 5.31270551681518555 2.518035888671875 190 153 112 255 1
0.181504964828491211 5.27663707733154297 2.51299142837524414 190 153 112 255 1
0.196856766939163208 5.23848628997802734 2.4760735034942627 190 153 112 255 1
0.195602595806121826 5.22921657562255859 2.51432991027832031 190 153 112 255 1
0.195775777101516724 5.23282623291015625 2.54959702491760254 190 153 112 255 1
0.231122374534606934 5.10402536392211914 2.39884305000305176 190 153 112 255 1
0.23258441686630249 5.11161422729492188 2.43202543258666992 190 153 112 255 1
0.255966663360595703 5.03948211669921875 2.4498753547668457 190 153 112 255 1
0.240658193826675415 5.10374975204467773 2.46215367317199707 190 153 112 255 1
0.239522695541381836 5.11183023452758789 2.3386378288269043 190 153 112 255 1
0.239764586091041565 5.09145259857177734 2.32592511177062988 190 153 112 255 1
0.243428871035575867 5.05393695831298828 2.41756677627563477 190 153 112 255 1
0.162249058485031128 5.37813758850097656 2.41956162452697754 190 153 112 255 1
0.221796736121177673 5.25807380676269531 2.37317514419555664 190 153 112 255 1
0.237009301781654358 5.21108770370483398 2.37754511833190918 190 153 112 255 1
0.216459929943084717 5.25091743469238281 2.39143133163452148 190 153 112 255 1
0.110879279673099518 5.49174737930297852 2.74992060661315918 190 153 112 255 1
0.113579250872135162 5.48332881927490234 2.78600811958312988 190 153 112 255 1
0.192038267850875854 5.18541383743286133 2.76568913459777832 190 153 112 255 1
0.213372871279716492 5.13318681716918945 2.76959395408630371 190 153 112 255 1
0.20331360399723053 5.16264152526855469 2.77921271324157715 190 153 112 255 1
0.213194981217384338 5.14646577835083008 2.74525213241577148 190 153 112 255 1
0.211552739143371582 5.14687013626098633 2.70279598236083984 190 153 112 255 1
0.133692935109138489 5.0478510856628418 2.70508694648742676 190 153 112 255 1
0.119259417057037354 5.0395660400390625 2.6652529239654541 190 153 112 255 1
0.218672856688499451 5.1177525520324707 2.64899444580078125 190 153 112 255 1
0.199879884719848633 5.18387460708618164 2.6713252067565918 190 153 112 255 1
0.21508634090423584 5.12443256378173828 2.71037960052490234 190 153 112 255 1
0.196053028106689453 5.19535446166992188 2.70720028877258301 190 153 112 255 1
0.192429512739181519 5.21643495559692383 2.64411783218383789 190 153 112 255 1
0.188245311379432678 5.2361140251159668 2.68102478981018066 190 153 112 255 1
0.137310013175010681 5.40595102310180664 2.84292125701904297 190 153 112 255 1
0.136136755347251892 5.40556669235229492 2.82375335693359375 190 153 112 255 1
0.132280826568603516 5.45253181457519531 2.66834259033203125 190 153 112 255 1
0.200412794947624207 5.09630680084228516 2.71834611892700195 190 153 112 255 1
0.21325528621673584 5.10896158218383789 2.68055319786071777 190 153 112 255 1
0.178279280662536621 5.07172679901123047 2.6897282600402832 190 153 112 255 1
0.185922935605049133 5.07035732269287109 2.66845345497131348 190 153 112 255 1
0.172560051083564758 5.29197454452514648 2.54025030136108398 190 153 112 255 1
0.170567348599433899 5.30858612060546875 2.59186220169067383 190 153 112 255 1
0.101972170174121857 5.51168632507324219 2.87829375267028809 190 153 112 255 1
0.177434414625167847 5.07889604568481445 2.75153326988220215 190 153 112 255 1
0.176117897033691406 5.06989383697509766 2.71596932411193848 190 153 112 255 1
0.19331805408000946 5.09838533401489258 2.75870180130004883 190 153 112 255 1
0.165451094508171082 5.30258464813232422 2.8174586296081543 190 153 112 255 1
0.157042860984802246 5.37009954452514648 2.55866336822509766 190 153 112 255 1
0.16098940372467041 5.3399357795715332 2.57825636863708496 190 153 112 255 1
0.147262230515480042 5.39398336410522461 2.5938267707824707 190 153 112 255 1
0.146651074290275574 5.39652204513549805 2.6330268383026123 190 153 112 255 1
0.161308214068412781 5.30074501037597656 2.73781633377075195 190 153 112 255 1
0.163695782423019409 5.28653383255004883 2.78111982345581055 190 153 112 255 1
0.162775680422782898 5.03778553009033203 2.57295083999633789 190 153 112 255 1
0.140601024031639099 5.04432868957519531 2.62566637992858887 190 153 112 255 1
0.224482879042625427 5.12986421585083008 2.54605889320373535 190 153 112 255 1
0.22221103310585022 5.09661960601806641 2.58024811744689941 190 153 112 255 1
0.15610252320766449 5.34853267669677734 2.6654961109161377 190 153 112 255 1
0.186387509107589722 5.25830745697021484 2.65171098709106445 190 153 112 255 1
0.165716543793678284 5.29691314697265625 2.69430017471313477 190 153 112 255 1
0.213956400752067566 5.1425933837890625 2.64726901054382324 190 153 112 255 1
0.211352378129959106 5.15851974487304688 2.5933830738067627 190 153 112 255 1
0.20855771005153656 5.17106151580810547 2.62714672088623047 190 153 112 255 1
0.223177492618560791 5.12878894805908203 2.59498906135559082 190 153 112 255 1
0.208928570151329041 5.09322118759155273 2.63986444473266602 190 153 112 255 1
0.207632899284362793 5.08215141296386719 2.54645037651062012 190 153 112 255 1
0.168022289872169495 5.05708503723144531 2.63585305213928223 190 153 112 255 1
0.186188608407974243 5.05978107452392578 2.57626652717590332 190 153 112 255 1
0.156160831451416016 5.35828971862792969 2.61802959442138672 190 153 112 255 1
0.124322064220905304 5.44526958465576172 2.71618437767028809 190 153 112 255 1
0.149216338992118835 5.38658380508422852 2.70235037803649902 190 153 112 255 1
0.14812624454498291 5.39873886108398438 2.6724860668182373 190 153 112 255 1
0.125338047742843628 5.45033597946166992 2.83281540870666504 190 153 112 255 1
0.107751481235027313 5.48832511901855469 2.82901239395141602 190 153 112 255 1
0.127554610371589661 5.44379043579101562 2.85909509658813477 190 153 112 255 1
0.11423841118812561 5.4856257438659668 2.86286425590515137 190 153 112 255 1
0.131835803389549255 5.43386173248291016 2.73515820503234863 190 153 112 255 1
0.149316012859344482 5.39836502075195312 2.78645014762878418 190 153 112 255 1
0.146210551261901855 5.38572835922241211 2.75057101249694824 190 153 112 255 1
0.132243603467941284 5.44005775451660156 2.79320120811462402 190 153 112 255 1
0.129495739936828613 5.42696952819824219 2.76335954666137695 190 153 112 255 1
0.145588904619216919 5.35813331604003906 2.78426194190979004 190 153 112 255 1
0.122607842087745667 5.02747631072998047 2.61560583114624023 190 153 112 255 1
0.197150811553001404 5.20512723922729492 2.55437207221984863 190 153 112 255 1
0.195683091878890991 5.21918392181396484 2.6187443733215332 190 153 112 255 1
0.18534456193447113 5.26363849639892578 2.57393741607666016 190 153 112 255 1
0.168563216924667358 5.29369211196899414 2.62226319313049316 190 153 112 255 1
0.137027904391288757 5.36106967926025391 2.82239246368408203 190 153 112 255 1
0.154932990670204163 5.32910346984863281 2.82941079139709473 190 153 112 255 1
0.141427323222160339 5.366607666015625 2.84377694129943848 190 153 112 255 1
0.184741690754890442 5.24601125717163086 2.73476076126098633 190 153 112 255 1
0.183294326066970825 5.20092916488647461 2.79482340812683105 190 153 112 255 1
0.1772269606590271 5.24335241317749023 2.77978110313415527 190 153 112 255 1
0.187064424157142639 5.20424509048461914 2.75301289558410645 190 153 112 255 1
0.155867546796798706 5.34873580932617188 2.69315743446350098 190 153 112 255 1
0.15107417106628418 5.34773588180541992 2.72550106048583984 190 153 112 255 1
0.152721285820007324 5.06786823272705078 2.75194263458251953 190 153 112 255 1
0.112342126667499542 5.05185317993164062 2.74263238906860352 190 153 112 255 1
0.111049778759479523 5.04823827743530273 2.78084278106689453 190 153 112 255 1
0.162475690245628357 5.07195854187011719 2.7793421745300293 190 153 112 255 1
0.145428821444511414 5.3296051025390625 2.80442047119140625 190 153 112 255 1
0.15315459668636322 5.3437647819519043 2.75235724449157715 190 153 112 255 1
0.131926417350769043 5.45342683792114258 2.57835245132446289 190 153 112 255 1
0.12100229412317276 5.45832347869873047 2.63239884376525879 190 153 112 255 1
0.115528032183647156 5.50530862808227539 2.60787010192871094 190 153 112 255 1
0.18646201491355896 5.21754646301269531 2.80513906478881836 190 153 112 255 1
0.175495430827140808 5.26998043060302734 2.80967187881469727 190 153 112 255 1
0.0897341072559356689 5.65331602096557617 2.53787851333618164 190 153 112 255 1
0.0937717929482460022 5.61571311950683594 2.52632784843444824 190 153 112 255 1
0.110195480287075043 5.53227710723876953 2.49401760101318359 190 153 112 255 1
0.109836146235466003 5.57161712646484375 2.49868607521057129 190 153 112 255 1
0.111619062721729279 5.55208969116210938 2.52980160713195801 190 153 112 255 1
0.0989526137709617615 5.58921718597412109 2.50906920433044434 190 153 112 255 1
-0.0100515522062778473 6.0590972900390625 2.64183378219604492 190 153 112 255 1
0.094134204089641571 5.56101369857788086 2.76515936851501465 190 153 112 255 1
0.0991739034652709961 5.58058929443359375 2.52402758598327637 190 153 112 255 1
-0.0165691636502742767 5.98058176040649414 2.65091061592102051 190 153 112 255 1
0.00425272248685359955 6.08301973342895508 2.6331477165222168 190 153 112 255 1
0.0625261291861534119 5.69672632217407227 2.58323431015014648 190 153 112 255 1
0.0572467856109142303 5.72926950454711914 2.58683204650878906 190 153 112 255 1
0.0535973832011222839 5.74581813812255859 2.63087224960327148 190 153 112 255 1
0.0585230365395545959 5.72276592254638672 2.67699837684631348 190 153 112 255 1
0.0647240951657295227 5.68324422836303711 2.65151834487915039 190 153 112 255 1
0.049298163503408432 5.73568439483642578 2.71950364112854004 190 153 112 255 1
0.0704765990376472473 5.66577005386352539 2.6643974781036377 190 153 112 255 1
0.0381953045725822449 5.77327394485473633 2.74634528160095215 190 153 112 255 1
0.0520691536366939545 5.71487665176391602 2.73933005332946777 190 153 112 255 1
0.023532593622803688 5.83411407470703125 2.66898369789123535 190 153 112 255 1
0.0137707069516181946 5.87537336349487305 2.6771233081817627 190 153 112 255 1
0.0361117646098136902 5.79758501052856445 2.63731217384338379 190 153 112 255 1
0.00934248883277177811 5.90960407257080078 2.6564478874206543 190 153 112 255 1
0.109882168471813202 5.52916812896728516 2.55222797393798828 190 153 112 255 1
0.106089688837528229 5.54913902282714844 2.61543583869934082 190 153 112 255 1
0.0979970991611480713 5.58056783676147461 2.57805800437927246 190 153 112 255 1
0.112624689936637878 5.51050329208374023 2.58474087715148926 190 153 112 255 1
0.0256579965353012085 5.89542102813720703 2.62892389297485352 190 153 112 255 1
0.0134538579732179642 5.87949037551879883 2.64947032928466797 190 153 112 255 1
0.0328345634043216705 5.85004281997680664 2.61825203895568848 190 153 112 255 1
0.0227830410003662109 5.86785125732421875 2.7219078540802002 190 153 112 255 1
0.0245975367724895477 5.83214044570922852 2.72116899490356445 190 153 112 255 1
0.0980143845081329346 5.57943344116210938 2.88323354721069336 190 153 112 255 1
0.096003405749797821 5.55400228500366211 2.88654327392578125 190 153 112 255 1
-0.0142888110131025314 6.02176666259765625 2.64449238777160645 190 153 112 255 1
0.0645107626914978027 5.68563079833984375 2.76130151748657227 190 153 112 255 1
0.0991111025214195251 5.56216955184936523 2.79757571220397949 190 153 112 255 1
0.0955635756254196167 5.52214717864990234 2.85177206993103027 190 153 112 255 1
0.0948474481701850891 5.56059551239013672 2.83964228630065918 190 153 112 255 1
0.0604136250913143158 5.64429950714111328 2.79723501205444336 190 153 112 255 1
0.0524952523410320282 5.69861030578613281 2.80892634391784668 190 153 112 255 1
0.103905774652957916 5.54494905471801758 2.68197488784790039 190 153 112 255 1
0.104863494634628296 5.51957845687866211 2.65769767761230469 190 153 112 255 1
0.0913749188184738159 5.58406782150268555 2.72438812255859375 190 153 112 255 1
0.0997145920991897583 5.55635356903076172 2.65052628517150879 190 153 112 255 1
0.0508174821734428406 5.68461370468139648 2.84369754791259766 190 153 112 255 1
0.0133822513744235039 5.91467094421386719 2.71459865570068359 190 153 112 255 1
0.0687195435166358948 5.63398075103759766 2.83576631546020508 190 153 112 255 1
0.0745954439043998718 5.648284912109375 2.8629918098449707 190 153 112 255 1
0.0910933613777160645 5.57570171356201172 2.86287546157836914 190 153 112 255 1
0.0744940713047981262 5.66692447662353516 2.55994486808776855 190 153 112 255 1
0.0749070271849632263 5.63002729415893555 2.65149402618408203 190 153 112 255 1
0.030240863561630249 5.81993722915649414 2.62483739852905273 190 153 112 255 1
0.0485667958855628967 5.76326560974121094 2.6032404899597168 190 153 112 255 1
0.0499164611101150513 5.79970741271972656 2.59891414642333984 190 153 112 255 1
0.0653441697359085083 5.76194334030151367 2.58195805549621582 190 153 112 255 1
0.0318260751664638519 5.79568910598754883 2.66219782829284668 190 153 112 255 1
0.0471942052245140076 5.77169036865234375 2.70086383819580078 190 153 112 255 1
0.0505991317331790924 5.74925088882446289 2.66879439353942871 190 153 112 255 1
0.0739222243428230286 5.71455717086791992 2.56594657897949219 190 153 112 255 1
0.109310932457447052 5.51628684997558594 2.69100594520568848 190 153 112 255 1
0.105055548250675201 5.49953413009643555 2.7243340015411377 190 153 112 255 1
0.0647034868597984314 5.66064691543579102 2.69084477424621582 190 153 112 255 1
0.077335655689239502 5.60918188095092773 2.67307233810424805 190 153 112 255 1
0.0708355829119682312 5.63758468627929688 2.70672059059143066 190 153 112 255 1
0.0904013365507125854 5.62392854690551758 2.87760019302368164 190 153 112 255 1
0.0057584117166697979 5.91115188598632812 2.69362187385559082 190 153 112 255 1
-0.0100181382149457932 5.96402692794799805 2.66239833831787109 190 153 112 255 1
0.00743606872856616974 5.93567752838134766 2.64056611061096191 190 153 112 255 1
0.00710818730294704437 5.95204973220825195 2.68928408622741699 190 153 112 255 1
0.077780306339263916 5.63861274719238281 2.58776402473449707 190 153 112 255 1
0.0800740867853164673 5.61902332305908203 2.72242975234985352 190 153 112 255 1
