ply
format ascii 1.0
element vertex 604
property float x
property float y
property float z
property uchar red
property uchar green
property uchar blue
property uchar alpha
property uint label
end_header
4.39362478256225586 8.21299266815185547 1.31660020351409912 190 153 112 255 1
4.32775068283081055 8.17810726165771484 1.43833482265472412 190 153 112 255 1
4.33391618728637695 8.16762256622314453 1.49518680572509766 190 153 112 255 1
3.93010044097900391 8.03090858459472656 2.12414693832397461 190 153 112 255 1
3.96346330642700195 8.05140209197998047 2.16172981262207031 190 153 112 255 1
3.91262936592102051 8.04942512512207031 2.0657963752746582 190 153 112 255 1
3.95779156684875488 8.04763984680175781 2.0975337028503418 190 153 112 255 1
3.98358845710754395 8.06576919555664062 2.06542015075683594 190 153 112 255 1
3.95999264717102051 8.04655551910400391 2.12080764770507812 190 153 112 255 1
4.00484132766723633 8.05860805511474609 2.12099266052246094 190 153 112 255 1
3.98573160171508789 8.05826091766357422 2.09634184837341309 190 153 112 255 1
3.78265738487243652 7.97750759124755859 2.29034686088562012 190 153 112 255 1
3.81552243232727051 7.98987960815429688 2.30205011367797852 190 153 112 255 1
3.81904792785644531 7.9788823127746582 2.2569119930267334 190 153 112 255 1
3.78251242637634277 7.97308731079101562 2.23359322547912598 190 153 112 255 1
3.84381294250488281 7.99004268646240234 2.24783444404602051 190 153 112 255 1
3.86722850799560547 8.00360393524169922 2.18687653541564941 190 153 112 255 1
3.92388272285461426 8.01259803771972656 2.20099186897277832 190 153 112 255 1
3.95215845108032227 8.03095436096191406 2.18430685997009277 190 153 112 255 1
3.93972063064575195 8.01828479766845703 2.25126934051513672 190 153 112 255 1
3.65887117385864258 7.94728374481201172 2.1722414493560791 190 153 112 255 1
3.69311785697937012 7.94693279266357422 2.19735002517700195 190 153 112 255 1
3.70081019401550293 7.95509958267211914 2.23198509216308594 190 153 112 255 1
3.73056650161743164 7.95609664916992188 2.20863604545593262 190 153 112 255 1
3.72173738479614258 7.96110010147094727 2.1739342212677002 190 153 112 255 1
3.61796832084655762 7.94887971878051758 2.34659051895141602 190 153 112 255 1
3.6416323184967041 7.9413905143737793 2.3523871898651123 190 153 112 255 1
3.67876076698303223 7.95070171356201172 2.39733791351318359 190 153 112 255 1
3.62857723236083984 7.96015357971191406 2.37682700157165527 190 153 112 255 1
3.95028924942016602 8.07770252227783203 2.0525505542755127 190 153 112 255 1
3.74958062171936035 7.97267770767211914 2.17818427085876465 190 153 112 255 1
3.80883240699768066 7.99658679962158203 2.15797924995422363 190 153 112 255 1
3.73176980018615723 7.97361087799072266 2.4272468090057373 190 153 112 255 1
3.83431267738342285 8.00119972229003906 2.40280413627624512 190 153 112 255 1
3.59744977951049805 7.92275619506835938 2.22702908515930176 190 153 112 255 1
3.63993358612060547 7.92852449417114258 2.21944379806518555 190 153 112 255 1
3.59488010406494141 7.92954778671264648 2.20069074630737305 190 153 112 255 1
3.62316656112670898 7.93853950500488281 2.19322562217712402 190 153 112 255 1
3.69608879089355469 7.95966815948486328 2.32953071594238281 190 153 112 255 1
3.68953967094421387 7.94633340835571289 2.27043771743774414 190 153 112 255 1
3.72782301902770996 7.95630741119384766 2.26347112655639648 190 153 112 255 1
4.0144810676574707 8.04164505004882812 2.34166765213012695 190 153 112 255 1
3.96848464012145996 8.02190399169921875 2.36472916603088379 190 153 112 255 1
4.04195880889892578 8.08191204071044922 2.10509800910949707 190 153 112 255 1
4.06915664672851562 8.07675266265869141 2.08307909965515137 190 153 112 255 1
4.01084804534912109 8.07481670379638672 2.10313940048217773 190 153 112 255 1
3.65812897682189941 7.93687629699707031 2.21358537673950195 190 153 112 255 1
3.58938956260681152 7.93563365936279297 2.26569294929504395 190 153 112 255 1
3.63776993751525879 7.92595720291137695 2.2693793773651123 190 153 112 255 1
3.61497902870178223 7.9281163215637207 2.28210783004760742 190 153 112 255 1
3.6390388011932373 7.93642425537109375 2.31974434852600098 190 153 112 255 1
4.09542608261108398 8.10381412506103516 2.09710001945495605 190 153 112 255 1
4.1081852912902832 8.09803867340087891 2.11353254318237305 190 153 112 255 1
3.92853498458862305 8.01044082641601562 2.34400796890258789 190 153 112 255 1
3.96569991111755371 8.01731204986572266 2.34766578674316406 190 153 112 255 1
3.97070097923278809 8.04107093811035156 2.39976119995117188 190 153 112 255 1
3.86909055709838867 8.07958984375 2.0459442138671875 190 153 112 255 1
3.7429964542388916 7.9648594856262207 2.3444974422454834 190 153 112 255 1
3.78701949119567871 7.98034572601318359 2.35817050933837891 190 153 112 255 1
3.81347775459289551 7.98858213424682617 2.35090875625610352 190 153 112 255 1
4.05732393264770508 8.05953311920166016 2.12930464744567871 190 153 112 255 1
4.08757162094116211 8.05407238006591797 2.1151268482208252 190 153 112 255 1
3.5951225757598877 7.94445085525512695 2.29986834526062012 190 153 112 255 1
3.85018610954284668 7.99446010589599609 2.29110336303710938 190 153 112 255 1
3.89801120758056641 8.0072784423828125 2.26445794105529785 190 153 112 255 1
3.95526766777038574 8.04031562805175781 2.42151236534118652 190 153 112 255 1
3.92006802558898926 8.01603221893310547 2.38672018051147461 190 153 112 255 1
3.86677384376525879 8.01791667938232422 2.16182732582092285 190 153 112 255 1
3.89112567901611328 8.03652000427246094 2.12373208999633789 190 153 112 255 1
3.92122030258178711 8.03658866882324219 2.15092372894287109 190 153 112 255 1
3.86731171607971191 8.03162574768066406 2.11685657501220703 190 153 112 255 1
3.86384677886962891 8.05406951904296875 2.06932544708251953 190 153 112 255 1
3.89377999305725098 8.03002262115478516 2.16692423820495605 190 153 112 255 1
3.85722064971923828 8.01129341125488281 2.43934893608093262 190 153 112 255 1
3.90996122360229492 8.01284027099609375 2.45043706893920898 190 153 112 255 1
3.8433830738067627 8.00269794464111328 2.45193362236022949 190 153 112 255 1
3.87868762016296387 8.00943660736083984 2.40511107444763184 190 153 112 255 1
3.89641070365905762 8.01687145233154297 2.42746162414550781 190 153 112 255 1
3.87712526321411133 7.99384784698486328 2.21157002449035645 190 153 112 255 1
3.91084885597229004 8.00327110290527344 2.2172551155090332 190 153 112 255 1
3.82676482200622559 7.98878765106201172 2.2099006175994873 190 153 112 255 1
4.07372903823852539 8.10130691528320312 2.04572963714599609 190 153 112 255 1
4.0838465690612793 8.09055519104003906 2.07597923278808594 190 153 112 255 1
3.80744194984436035 7.98871517181396484 2.41142678260803223 190 153 112 255 1
4.05296039581298828 8.10147953033447266 2.04036545753479004 190 153 112 255 1
4.06863832473754883 8.07539081573486328 2.02242302894592285 190 153 112 255 1
4.03708600997924805 8.08676052093505859 2.07871103286743164 190 153 112 255 1
4.01758956909179688 8.09061241149902344 2.04743528366088867 190 153 112 255 1
4.00631380081176758 8.08373069763183594 2.06286883354187012 190 153 112 255 1
3.98395228385925293 8.10093593597412109 2.04459547996520996 190 153 112 255 1
3.74475383758544922 7.97301578521728516 2.31245779991149902 190 153 112 255 1
3.69170022010803223 7.9585566520690918 2.36946725845336914 190 153 112 255 1
3.71708393096923828 7.9595484733581543 2.39420461654663086 190 153 112 255 1
3.77075386047363281 7.9843754768371582 2.39152288436889648 190 153 112 255 1
3.84106707572937012 8.00067615509033203 2.11112380027770996 190 153 112 255 1
3.86466646194458008 8.00117778778076172 2.35647869110107422 190 153 112 255 1
3.91323351860046387 8.02013111114501953 2.29465699195861816 190 153 112 255 1
3.84694695472717285 8.00681304931640625 2.38803529739379883 190 153 112 255 1
3.8964235782623291 8.002532958984375 2.37476015090942383 190 153 112 255 1
3.68434357643127441 7.9645075798034668 2.432891845703125 190 153 112 255 1
3.65488123893737793 7.95925712585449219 2.4024658203125 190 153 112 255 1
3.82016754150390625 7.97797060012817383 2.46934103965759277 190 153 112 255 1
3.77326679229736328 7.97877359390258789 2.4353950023651123 190 153 112 255 1
4.09161233901977539 8.06971263885498047 2.09745907783508301 190 153 112 255 1
3.67018580436706543 7.96166563034057617 2.15131139755249023 190 153 112 255 1
3.61644625663757324 7.94025659561157227 2.11901140213012695 190 153 112 255 1
3.6264336109161377 7.94355297088623047 2.15727829933166504 190 153 112 255 1
3.63921260833740234 7.9609827995300293 2.11825108528137207 190 153 112 255 1
4.20094490051269531 8.11488628387451172 2.31274700164794922 190 153 112 255 1
4.21822643280029297 8.11345481872558594 2.29323148727416992 190 153 112 255 1
4.24303245544433594 8.11525821685791016 2.25745606422424316 190 153 112 255 1
4.15708351135253906 8.09073257446289062 2.30368471145629883 190 153 112 255 1
4.01022815704345703 8.06359672546386719 2.1634223461151123 190 153 112 255 1
4.25030422210693359 8.10418510437011719 2.3872988224029541 190 153 112 255 1
4.24227714538574219 8.11595535278320312 2.3548276424407959 190 153 112 255 1
4.26928281784057617 8.11779212951660156 2.32422065734863281 190 153 112 255 1
4.27744865417480469 8.14096260070800781 2.35297918319702148 190 153 112 255 1
4.31503486633300781 8.23206901550292969 2.18887448310852051 190 153 112 255 1
4.31004810333251953 8.20455551147460938 2.20261144638061523 190 153 112 255 1
4.39769887924194336 8.29455089569091797 2.21077585220336914 190 153 112 255 1
3.95305299758911133 8.01267433166503906 2.21523809432983398 190 153 112 255 1
4.10415840148925781 8.08690166473388672 2.16720199584960938 190 153 112 255 1
4.11634206771850586 8.07506942749023438 2.21306204795837402 190 153 112 255 1
4.13153076171875 8.09833908081054688 2.17857956886291504 190 153 112 255 1
4.15594100952148438 8.10083866119384766 2.20235753059387207 190 153 112 255 1
4.05220556259155273 8.07486438751220703 2.16506600379943848 190 153 112 255 1
3.99582123756408691 8.03851509094238281 2.26691651344299316 190 153 112 255 1
3.96687436103820801 8.03689479827880859 2.28685379028320312 190 153 112 255 1
4.14379644393920898 8.0756683349609375 2.22822690010070801 190 153 112 255 1
4.05700826644897461 8.06692028045654297 2.35230135917663574 190 153 112 255 1
4.2165980339050293 8.15188407897949219 2.17426848411560059 190 153 112 255 1
4.23159313201904297 8.10345077514648438 2.32908749580383301 190 153 112 255 1
4.27320194244384766 8.12467002868652344 2.24151086807250977 190 153 112 255 1
4.27080297470092773 8.11597061157226562 2.27253103256225586 190 153 112 255 1
4.26207876205444336 8.11012840270996094 2.3038480281829834 190 153 112 255 1
4.24910879135131836 8.12734508514404297 2.28988409042358398 190 153 112 255 1
4.25056362152099609 8.169769287109375 2.18503141403198242 190 153 112 255 1
4.27188205718994141 8.10614109039306641 2.20146775245666504 190 153 112 255 1
4.28663873672485352 8.13572502136230469 2.20014834403991699 190 153 112 255 1
4.2489171028137207 8.14874458312988281 2.19623303413391113 190 153 112 255 1
4.15870952606201172 8.1108245849609375 2.11548948287963867 190 153 112 255 1
4.11503744125366211 8.08870220184326172 2.13694453239440918 190 153 112 255 1
4.11224985122680664 8.08517551422119141 2.15444612503051758 190 153 112 255 1
4.17424249649047852 8.12633705139160156 2.11365962028503418 190 153 112 255 1
4.17445230484008789 8.11174392700195312 2.1461632251739502 190 153 112 255 1
4.18118000030517578 8.14829730987548828 2.11691594123840332 190 153 112 255 1
4.16995382308959961 8.11012649536132812 2.41737627983093262 190 153 112 255 1
4.21524715423583984 8.10777664184570312 2.40703296661376953 190 153 112 255 1
4.23358631134033203 8.11880683898925781 2.38761448860168457 190 153 112 255 1
3.98704290390014648 8.02591514587402344 2.32005143165588379 190 153 112 255 1
4.08306646347045898 8.05710792541503906 2.21044206619262695 190 153 112 255 1
4.11133670806884766 8.07896900177001953 2.28360533714294434 190 153 112 255 1
4.16442584991455078 8.07083892822265625 2.24498152732849121 190 153 112 255 1
4.27529335021972656 8.12577724456787109 2.41186213493347168 190 153 112 255 1
4.25302219390869141 8.11049652099609375 2.4214324951171875 190 153 112 255 1
4.24289417266845703 8.09482860565185547 2.43073678016662598 190 153 112 255 1
4.25751733779907227 8.10109806060791016 2.44981789588928223 190 153 112 255 1
4.27735090255737305 8.18884086608886719 2.17906022071838379 190 153 112 255 1
4.29296255111694336 8.18227195739746094 2.19926691055297852 190 153 112 255 1
4.30676841735839844 8.194122314453125 2.16242003440856934 190 153 112 255 1
4.04005002975463867 8.05101394653320312 2.12804079055786133 190 153 112 255 1
4.12171792984008789 8.10194110870361328 2.41418051719665527 190 153 112 255 1
4.12181997299194336 8.10047626495361328 2.4294586181640625 190 153 112 255 1
4.1515955924987793 8.19734573364257812 2.04600286483764648 190 153 112 255 1
4.14437246322631836 8.15142440795898438 2.04427385330200195 190 153 112 255 1
4.07020664215087891 8.07399940490722656 2.4243471622467041 190 153 112 255 1
4.05499887466430664 8.06206893920898438 2.44437146186828613 190 153 112 255 1
4.02916812896728516 8.05763339996337891 2.41859197616577148 190 153 112 255 1
4.00519704818725586 8.03721141815185547 2.43790030479431152 190 153 112 255 1
3.97987627983093262 8.04533100128173828 2.42555999755859375 190 153 112 255 1
4.02215003967285156 8.07041358947753906 2.39003396034240723 190 153 112 255 1
4.19998311996459961 8.15053939819335938 2.15373635292053223 190 153 112 255 1
4.37880611419677734 8.29439353942871094 2.15618515014648438 190 153 112 255 1
4.37024927139282227 8.27925205230712891 2.20580315589904785 190 153 112 255 1
4.33318662643432617 8.26444149017333984 2.20023965835571289 190 153 112 255 1
4.32348775863647461 8.25018405914306641 2.19636106491088867 190 153 112 255 1
4.34347915649414062 8.24554824829101562 2.19771933555603027 190 153 112 255 1
4.36554527282714844 8.25891494750976562 2.21477842330932617 190 153 112 255 1
4.1219944953918457 8.13019657135009766 2.05310773849487305 190 153 112 255 1
4.01377725601196289 8.03182411193847656 2.30757975578308105 190 153 112 255 1
4.03138113021850586 8.04653835296630859 2.25021743774414062 190 153 112 255 1
4.05584478378295898 8.0478515625 2.23957228660583496 190 153 112 255 1
4.11059856414794922 8.07248497009277344 2.26196813583374023 190 153 112 255 1
4.04738378524780273 8.04898166656494141 2.2676703929901123 190 153 112 255 1
4.02110481262207031 8.03742313385009766 2.28285813331604004 190 153 112 255 1
4.07609748840332031 8.07633876800537109 2.30891680717468262 190 153 112 255 1
4.17107725143432617 8.12132072448730469 2.18138456344604492 190 153 112 255 1
4.18210458755493164 8.120758056640625 2.19306349754333496 190 153 112 255 1
4.21521663665771484 8.13954067230224609 2.18969941139221191 190 153 112 255 1
4.19268417358398438 8.14503002166748047 2.18023157119750977 190 153 112 255 1
4.21560096740722656 8.08831119537353516 2.20082449913024902 190 153 112 255 1
4.2483673095703125 8.11890316009521484 2.1999053955078125 190 153 112 255 1
4.20282983779907227 8.08482933044433594 2.23288464546203613 190 153 112 255 1
4.24311637878417969 8.10278797149658203 2.20597553253173828 190 153 112 255 1
4.1808009147644043 8.07936191558837891 2.20947909355163574 190 153 112 255 1
4.23952007293701172 8.10266971588134766 2.22997879981994629 190 153 112 255 1
4.21568679809570312 8.12415313720703125 2.37791824340820312 190 153 112 255 1
4.2003326416015625 8.10795974731445312 2.3480079174041748 190 153 112 255 1
4.19362020492553711 8.11098480224609375 2.39372849464416504 190 153 112 255 1
4.14611291885375977 8.08897781372070312 2.37913775444030762 190 153 112 255 1
4.11826705932617188 8.07783699035644531 2.31978678703308105 190 153 112 255 1
4.11465263366699219 8.07979297637939453 2.33934473991394043 190 153 112 255 1
4.15769052505493164 8.08630752563476562 2.33746480941772461 190 153 112 255 1
4.05718183517456055 8.06832313537597656 2.39012265205383301 190 153 112 255 1
4.10106229782104492 8.05277156829833984 2.13798880577087402 190 153 112 255 1
4.11855173110961914 8.05691337585449219 2.1199638843536377 190 153 112 255 1
3.99929356575012207 8.04795646667480469 2.1982123851776123 190 153 112 255 1
4.09333229064941406 8.07695960998535156 2.18946981430053711 190 153 112 255 1
4.04863309860229492 8.06189346313476562 2.18981432914733887 190 153 112 255 1
4.00267314910888672 8.03771209716796875 2.21764063835144043 190 153 112 255 1
4.05763816833496094 8.04702949523925781 2.2103126049041748 190 153 112 255 1
4.97275209426879883 8.41747474670410156 0.928591907024383545 190 153 112 255 1
4.88417816162109375 8.38626003265380859 1.05930685997009277 190 153 112 255 1
4.91738653182983398 8.39460468292236328 1.1030418872833252 190 153 112 255 1
4.9619903564453125 8.41204261779785156 1.11723768711090088 190 153 112 255 1
4.99444150924682617 8.41796493530273438 0.981086075305938721 190 153 112 255 1
5.02194976806640625 8.41945266723632812 0.96146702766418457 190 153 112 255 1
5.01266336441040039 8.41536998748779297 1.00472533702850342 190 153 112 255 1
4.99809694290161133 8.41226959228515625 1.03590834140777588 190 153 112 255 1
4.78635311126708984 8.35215473175048828 1.11573886871337891 190 153 112 255 1
4.77785873413085938 8.34294223785400391 1.13281822204589844 190 153 112 255 1
4.83384466171264648 8.37381744384765625 1.0664980411529541 190 153 112 255 1
4.86610078811645508 8.38026523590087891 1.05360329151153564 190 153 112 255 1
4.83114147186279297 8.36941432952880859 1.1251988410949707 190 153 112 255 1
4.87429666519165039 8.37693309783935547 1.12373518943786621 190 153 112 255 1
4.97365093231201172 8.41214656829833984 1.02382993698120117 190 153 112 255 1
4.92788600921630859 8.40353775024414062 1.06979477405548096 190 153 112 255 1
4.87710285186767578 8.38997077941894531 1.01621997356414795 190 153 112 255 1
4.98836517333984375 8.41174888610839844 1.12201535701751709 190 153 112 255 1
4.92876911163330078 8.4006195068359375 1.13459467887878418 190 153 112 255 1
4.96224021911621094 8.40317726135253906 1.16044723987579346 190 153 112 255 1
4.87721967697143555 8.37221050262451172 1.14708995819091797 190 153 112 255 1
4.83000707626342773 8.35987567901611328 1.14766776561737061 190 153 112 255 1
4.82182455062866211 8.37060165405273438 1.01953303813934326 190 153 112 255 1
4.23908424377441406 8.16724014282226562 0.871091008186340332 190 153 112 255 1
4.27042198181152344 8.18354129791259766 0.885660111904144287 190 153 112 255 1
4.24608182907104492 8.17142772674560547 0.927961111068725586 190 153 112 255 1
4.31005048751831055 8.19291973114013672 0.894828379154205322 190 153 112 255 1
4.26880025863647461 8.18453121185302734 0.933403372764587402 190 153 112 255 1
4.30673122406005859 8.19134044647216797 0.926663994789123535 190 153 112 255 1
4.31439638137817383 8.13939094543457031 0.743638455867767334 190 153 112 255 1
4.34522819519042969 8.15132236480712891 0.727997839450836182 190 153 112 255 1
4.25400114059448242 8.17078971862792969 1.09538161754608154 190 153 112 255 1
4.32507753372192383 8.20194435119628906 1.09748387336730957 190 153 112 255 1
4.26109457015991211 8.18580913543701172 1.05182027816772461 190 153 112 255 1
4.287628173828125 8.18748950958251953 1.10222887992858887 190 153 112 255 1
4.40417289733886719 8.23229312896728516 0.812558293342590332 190 153 112 255 1
4.42372274398803711 8.24411106109619141 0.867235660552978516 190 153 112 255 1
4.31504964828491211 8.16759204864501953 0.776892960071563721 190 153 112 255 1
4.25918865203857422 8.16803359985351562 0.80263751745223999 190 153 112 255 1
4.29399490356445312 8.18156242370605469 0.965519428253173828 190 153 112 255 1
4.39407587051391602 8.22584819793701172 0.908219277858734131 190 153 112 255 1
4.24318647384643555 8.17882251739501953 0.998949170112609863 190 153 112 255 1
4.28598213195800781 8.19065570831298828 1.01324748992919922 190 153 112 255 1
4.18398427963256836 8.06503677368164062 0.747776627540588379 190 153 112 255 1
4.20543670654296875 8.06926536560058594 0.749006032943725586 190 153 112 255 1
4.17667865753173828 8.0192718505859375 0.757368922233581543 190 153 112 255 1
4.42354202270507812 8.24745464324951172 0.933890104293823242 190 153 112 255 1
4.46262693405151367 8.26333904266357422 0.928126871585845947 190 153 112 255 1
4.40232944488525391 8.24153614044189453 0.956565737724304199 190 153 112 255 1
4.22360658645629883 8.16476154327392578 0.910676360130310059 190 153 112 255 1
4.30505895614624023 8.19849586486816406 0.825484752655029297 190 153 112 255 1
4.27052736282348633 8.18352603912353516 0.817572236061096191 190 153 112 255 1
4.30981731414794922 8.19851875305175781 1.1258547306060791 190 153 112 255 1
4.11258745193481445 8.09186077117919922 0.779543876647949219 190 153 112 255 1
4.08837604522705078 8.04872322082519531 0.733638644218444824 190 153 112 255 1
4.0812077522277832 8.06193923950195312 0.744993448257446289 190 153 112 255 1
4.09989070892333984 8.01295852661132812 0.729146420955657959 190 153 112 255 1
4.11008071899414062 8.02833175659179688 0.735473036766052246 190 153 112 255 1
4.15157175064086914 8.07127189636230469 0.750197291374206543 190 153 112 255 1
4.40524721145629883 8.22361087799072266 0.76318889856338501 190 153 112 255 1
4.4343714714050293 8.24996376037597656 0.980686962604522705 190 153 112 255 1
4.38282012939453125 8.23264884948730469 1.00029301643371582 190 153 112 255 1
4.12842559814453125 7.9571232795715332 0.707876861095428467 190 153 112 255 1
4.10456180572509766 7.98708820343017578 0.703207910060882568 190 153 112 255 1
4.23649787902832031 8.11699485778808594 0.746077120304107666 190 153 112 255 1
4.32468700408935547 8.14873409271240234 0.75419992208480835 190 153 112 255 1
4.26764678955078125 8.12265777587890625 0.785282552242279053 190 153 112 255 1
4.289306640625 8.13355445861816406 0.773393750190734863 190 153 112 255 1
4.13220024108886719 8.12604522705078125 1.00806891918182373 190 153 112 255 1
4.1537175178527832 8.13928413391113281 0.918033301830291748 190 153 112 255 1
4.14658403396606445 7.90987491607666016 0.746396243572235107 190 153 112 255 1
4.36618852615356445 8.21455097198486328 0.807914197444915771 190 153 112 255 1
4.34402799606323242 8.16602325439453125 0.766106784343719482 190 153 112 255 1
4.33496522903442383 8.205322265625 0.791458070278167725 190 153 112 255 1
4.36850690841674805 8.21806240081787109 0.762410581111907959 190 153 112 255 1
4.1838536262512207 8.14254093170166016 0.952509760856628418 190 153 112 255 1
4.2095484733581543 8.15313148498535156 0.875364542007446289 190 153 112 255 1
4.02982378005981445 8.07772731781005859 0.775861501693725586 190 153 112 255 1
4.09605026245117188 7.99164962768554688 0.719116568565368652 190 153 112 255 1
4.02433300018310547 8.06398296356201172 0.735007047653198242 190 153 112 255 1
4.3245387077331543 8.19738197326660156 1.0165637731552124 190 153 112 255 1
4.35592031478881836 8.21229743957519531 0.920335710048675537 190 153 112 255 1
4.34303522109985352 8.20421981811523438 0.979893743991851807 190 153 112 255 1
4.37834548950195312 8.22052478790283203 0.965357482433319092 190 153 112 255 1
4.22475528717041016 8.10019588470458984 0.785385787487030029 190 153 112 255 1
4.14840555191040039 8.11660099029541016 0.792313933372497559 190 153 112 255 1
4.17705202102661133 8.09231472015380859 0.748352766036987305 190 153 112 255 1
4.19104146957397461 8.09747600555419922 0.779882550239562988 190 153 112 255 1
4.21549701690673828 8.10909461975097656 0.761569857597351074 190 153 112 255 1
4.31052541732788086 8.19555187225341797 1.05451047420501709 190 153 112 255 1
4.35774326324462891 8.21812248229980469 1.07761061191558838 190 153 112 255 1
4.22055912017822266 8.16208076477050781 0.959039986133575439 190 153 112 255 1
4.20162534713745117 8.15515708923339844 1.00424206256866455 190 153 112 255 1
4.16211462020874023 8.13255882263183594 1.02294611930847168 190 153 112 255 1
4.05337667465209961 8.04636383056640625 0.671072483062744141 190 153 112 255 1
4.08440065383911133 8.01029396057128906 0.680282354354858398 190 153 112 255 1
4.05717897415161133 8.04046154022216797 0.708160340785980225 190 153 112 255 1
4.02306556701660156 8.06949043273925781 0.66638481616973877 190 153 112 255 1
4.04053449630737305 8.05167484283447266 0.710367202758789062 190 153 112 255 1
4.07628488540649414 7.99456453323364258 0.655879199504852295 190 153 112 255 1
4.0470433235168457 8.02483367919921875 0.642683088779449463 190 153 112 255 1
4.15551948547363281 7.91329002380371094 0.759258627891540527 190 153 112 255 1
4.16631555557250977 7.8796539306640625 0.759424209594726562 190 153 112 255 1
4.1075129508972168 8.11626625061035156 0.87048262357711792 190 153 112 255 1
4.12456464767456055 8.13122940063476562 0.928604960441589355 190 153 112 255 1
4.07132339477539062 8.08308887481689453 0.781625270843505859 190 153 112 255 1
4.06956243515014648 8.08576869964599609 0.801871955394744873 190 153 112 255 1
4.3384857177734375 8.18504524230957031 0.698816657066345215 190 153 112 255 1
4.380401611328125 8.21624565124511719 0.846536755561828613 190 153 112 255 1
4.33828926086425781 8.20761203765869141 0.856170177459716797 190 153 112 255 1
4.21060991287231445 8.15201759338378906 0.817833185195922852 190 153 112 255 1
4.42307662963867188 8.24602031707763672 1.04127395153045654 190 153 112 255 1
4.46179866790771484 8.25720596313476562 1.08056056499481201 190 153 112 255 1
4.45898914337158203 8.26374053955078125 1.04069828987121582 190 153 112 255 1
4.41744422912597656 8.25090312957763672 1.09631979465484619 190 153 112 255 1
4.37871265411376953 8.23393821716308594 1.05481767654418945 190 153 112 255 1
4.39059162139892578 8.22839164733886719 1.09722363948822021 190 153 112 255 1
4.43733930587768555 8.2443695068359375 0.74580693244934082 190 153 112 255 1
4.42918300628662109 8.24732017517089844 0.782514810562133789 190 153 112 255 1
4.11378145217895508 8.11147117614746094 0.833859086036682129 190 153 112 255 1
4.09696006774902344 8.0983428955078125 0.795762717723846436 190 153 112 255 1
4.1395878791809082 8.13699436187744141 0.841822922229766846 190 153 112 255 1
4.13994693756103516 8.1252593994140625 0.808810830116271973 190 153 112 255 1
4.19115495681762695 8.14440250396728516 1.04649710655212402 190 153 112 255 1
4.14789199829101562 8.09446048736572266 0.780109047889709473 190 153 112 255 1
4.2489781379699707 8.17381858825683594 0.970796644687652588 190 153 112 255 1
4.21267938613891602 8.16624832153320312 1.04691290855407715 190 153 112 255 1
4.43644142150878906 8.25753498077392578 0.90825420618057251 190 153 112 255 1
4.14070987701416016 7.94244050979614258 0.748769402503967285 190 153 112 255 1
4.1369786262512207 7.92913532257080078 0.73396676778793335 190 153 112 255 1
4.11900424957275391 7.95734167098999023 0.732434332370758057 190 153 112 255 1
4.14193058013916016 7.9870915412902832 0.747628927230834961 190 153 112 255 1
4.23349428176879883 8.17402839660644531 1.07099580764770508 190 153 112 255 1
4.2121429443359375 8.17563819885253906 1.08924984931945801 190 153 112 255 1
4.09246444702148438 7.95495319366455078 0.643723964691162109 190 153 112 255 1
4.16871881484985352 7.98481655120849609 0.757632315158843994 190 153 112 255 1
4.20154476165771484 8.01418590545654297 0.762107133865356445 190 153 112 255 1
4.1913604736328125 7.9656987190246582 0.767273604869842529 190 153 112 255 1
4.16020011901855469 8.14463520050048828 0.849177360534667969 190 153 112 255 1
4.21634674072265625 8.14530467987060547 0.803680002689361572 190 153 112 255 1
4.17364835739135742 8.14465904235839844 0.80923914909362793 190 153 112 255 1
4.06950950622558594 7.96156454086303711 0.633502840995788574 190 153 112 255 1
4.51502561569213867 8.2532196044921875 0.2723349928855896 190 153 112 255 1
4.54199075698852539 8.25491714477539062 0.23219907283782959 190 153 112 255 1
4.4558258056640625 8.20521831512451172 0.193574234843254089 190 153 112 255 1
4.47809505462646484 8.20965957641601562 0.2472972571849823 190 153 112 255 1
4.54221820831298828 8.23046302795410156 0.148431554436683655 190 153 112 255 1
4.48395299911499023 8.20750617980957031 0.145610034465789795 190 153 112 255 1
4.505889892578125 8.22296905517578125 0.158645108342170715 190 153 112 255 1
4.50218963623046875 8.21923160552978516 0.212519392371177673 190 153 112 255 1
4.5028376579284668 8.23094463348388672 0.243415907025337219 190 153 112 255 1
4.47809934616088867 8.23015117645263672 0.283839046955108643 190 153 112 255 1
4.53306722640991211 8.27183246612548828 0.46701541543006897 190 153 112 255 1
4.53151655197143555 8.23654270172119141 0.193661466240882874 190 153 112 255 1
4.52898073196411133 8.23898601531982422 0.226739615201950073 190 153 112 255 1
4.51511144638061523 8.27354621887207031 0.504655182361602783 190 153 112 255 1
4.5323491096496582 8.28445053100585938 0.522853672504425049 190 153 112 255 1
4.44678640365600586 8.21433258056640625 0.281285524368286133 190 153 112 255 1
4.54165887832641602 8.27891063690185547 0.943097949028015137 190 153 112 255 1
4.51336765289306641 8.26627254486083984 1.00041437149047852 190 153 112 255 1
4.53013896942138672 8.26280021667480469 1.14036130905151367 190 153 112 255 1
4.55542659759521484 8.25069236755371094 1.18648374080657959 190 153 112 255 1
4.46971416473388672 8.22075557708740234 1.49688720703125 190 153 112 255 1
4.46821260452270508 8.21783828735351562 1.39566969871520996 190 153 112 255 1
4.49996328353881836 8.22900581359863281 1.45739853382110596 190 153 112 255 1
4.46883058547973633 8.27166938781738281 0.991008639335632324 190 153 112 255 1
4.45826196670532227 8.25332164764404297 0.655611395835876465 190 153 112 255 1
4.46925973892211914 8.25798606872558594 0.691488325595855713 190 153 112 255 1
4.43461704254150391 8.23487663269042969 0.676924526691436768 190 153 112 255 1
4.42203283309936523 8.2236480712890625 0.713375091552734375 190 153 112 255 1
4.44419193267822266 8.21117973327636719 1.42478656768798828 190 153 112 255 1
4.47754573822021484 8.27227878570556641 0.82703399658203125 190 153 112 255 1
4.50194358825683594 8.27574539184570312 0.826450467109680176 190 153 112 255 1
4.49558115005493164 8.27374649047851562 0.866786658763885498 190 153 112 255 1
4.527313232421875 8.28461933135986328 0.841287791728973389 190 153 112 255 1
4.55931329727172852 8.28164768218994141 0.885240495204925537 190 153 112 255 1
4.51131057739257812 8.27742385864257812 0.960283935070037842 190 153 112 255 1
4.49602222442626953 8.27502822875976562 0.904432535171508789 190 153 112 255 1
4.37819623947143555 8.21346855163574219 0.710198581218719482 190 153 112 255 1
4.49290084838867188 8.27058506011962891 1.12519228458404541 190 153 112 255 1
4.5374760627746582 8.27564525604248047 0.58596348762512207 190 153 112 255 1
4.50174474716186523 8.26875400543212891 0.601391077041625977 190 153 112 255 1
4.51343727111816406 8.26677322387695312 0.646662712097167969 190 153 112 255 1
4.38249397277832031 8.18420600891113281 1.4469749927520752 190 153 112 255 1
4.50789165496826172 8.27014541625976562 0.783427536487579346 190 153 112 255 1
4.51343107223510742 8.27352523803710938 0.748171508312225342 190 153 112 255 1
4.51041173934936523 8.26623916625976562 0.703699052333831787 190 153 112 255 1
4.48492097854614258 8.26652336120605469 0.734708666801452637 190 153 112 255 1
4.41374444961547852 8.22770500183105469 0.642694354057312012 190 153 112 255 1
4.40652751922607422 8.22436428070068359 0.678884327411651611 190 153 112 255 1
4.49748611450195312 8.26680946350097656 1.01796567440032959 190 153 112 255 1
4.54627132415771484 8.2715911865234375 1.05999457836151123 190 153 112 255 1
4.49524688720703125 8.26666545867919922 1.06000638008117676 190 153 112 255 1
4.52729177474975586 8.24158477783203125 1.1842268705368042 190 153 112 255 1
4.46359443664550781 8.25680446624755859 0.774119555950164795 190 153 112 255 1
4.45045375823974609 8.25636672973632812 0.822582125663757324 190 153 112 255 1
4.51159095764160156 8.23211574554443359 1.36271452903747559 190 153 112 255 1
4.53239727020263672 8.23990249633789062 1.4221566915512085 190 153 112 255 1
4.53618621826171875 8.27750205993652344 0.674000859260559082 190 153 112 255 1
4.34625625610351562 8.17013359069824219 1.46401059627532959 190 153 112 255 1
4.39867591857910156 8.19155311584472656 1.51641464233398438 190 153 112 255 1
4.3354644775390625 8.16469478607177734 1.53618502616882324 190 153 112 255 1
4.37315845489501953 8.18232822418212891 1.54848158359527588 190 153 112 255 1
4.53302288055419922 8.24172782897949219 1.56377828121185303 190 153 112 255 1
4.44858026504516602 8.20936393737792969 1.53012347221374512 190 153 112 255 1
4.50329494476318359 8.23140335083007812 1.52995359897613525 190 153 112 255 1
4.51795053482055664 8.23487758636474609 1.60185027122497559 190 153 112 255 1
4.52306699752807617 8.23151493072509766 1.63767623901367188 190 153 112 255 1
4.28932809829711914 8.16128826141357422 1.61668002605438232 190 153 112 255 1
4.39508819580078125 8.18970584869384766 1.60662877559661865 190 153 112 255 1
4.43310689926147461 8.19527626037597656 1.63694334030151367 190 153 112 255 1
4.45000362396240234 8.21512889862060547 1.56543874740600586 190 153 112 255 1
4.46756172180175781 8.21755313873291016 1.61039304733276367 190 153 112 255 1
4.47555255889892578 8.21618938446044922 1.65251541137695312 190 153 112 255 1
4.44303703308105469 8.20440959930419922 1.66012585163116455 190 153 112 255 1
4.41084623336791992 8.19748878479003906 1.56566810607910156 190 153 112 255 1
4.5328822135925293 8.23864459991455078 1.52856564521789551 190 153 112 255 1
4.3198542594909668 8.15851497650146484 1.62525665760040283 190 153 112 255 1
4.40898704528808594 8.18919849395751953 1.63338601589202881 190 153 112 255 1
4.35533285140991211 8.16764640808105469 1.64091587066650391 190 153 112 255 1
4.29979801177978516 8.17048168182373047 1.53602910041809082 190 153 112 255 1
4.33216762542724609 8.16630649566650391 1.57865500450134277 190 153 112 255 1
4.27969789505004883 8.16583251953125 1.56493771076202393 190 153 112 255 1
5.0139923095703125 8.41871452331542969 0.470339179039001465 190 153 112 255 1
5.02571630477905273 8.42657089233398438 0.529297053813934326 190 153 112 255 1
5.22472238540649414 8.48482513427734375 0.517828464508056641 190 153 112 255 1
5.40381002426147461 8.531402587890625 0.422071307897567749 190 153 112 255 1
5.34423589706420898 8.51152229309082031 0.449061393737792969 190 153 112 255 1
5.34559392929077148 8.51521587371826172 0.471919864416122437 190 153 112 255 1
5.42383718490600586 8.54041576385498047 0.465514212846755981 190 153 112 255 1
5.14137458801269531 8.45556926727294922 0.416610509157180786 190 153 112 255 1
5.20211982727050781 8.47763347625732422 0.495188534259796143 190 153 112 255 1
5.1726231575012207 8.46055984497070312 0.431297570466995239 190 153 112 255 1
4.56700611114501953 8.25387001037597656 0.149663209915161133 190 153 112 255 1
5.13714122772216797 8.45588588714599609 0.542296826839447021 190 153 112 255 1
5.14928436279296875 8.46101188659667969 0.495078384876251221 190 153 112 255 1
5.19026613235473633 8.47680377960205078 0.51476132869720459 190 153 112 255 1
4.91166019439697266 8.39126110076904297 0.347668677568435669 190 153 112 255 1
5.05471420288085938 8.43484783172607422 0.485764205455780029 190 153 112 255 1
5.06583881378173828 8.43535709381103516 0.544150650501251221 190 153 112 255 1
4.82509565353393555 8.35782241821289062 0.485524535179138184 190 153 112 255 1
4.77513837814331055 8.34639739990234375 0.513435184955596924 190 153 112 255 1
4.83295679092407227 8.35842609405517578 0.315992623567581177 190 153 112 255 1
5.24724483489990234 8.48686981201171875 0.356338202953338623 190 153 112 255 1
4.87050628662109375 8.37636756896972656 0.511542022228240967 190 153 112 255 1
4.75761127471923828 8.33241081237792969 0.297831803560256958 190 153 112 255 1
4.71289443969726562 8.31938552856445312 0.287433058023452759 190 153 112 255 1
4.7064666748046875 8.31340503692626953 0.380593597888946533 190 153 112 255 1
4.62404584884643555 8.300537109375 0.381730109453201294 190 153 112 255 1
4.62832832336425781 8.296661376953125 0.342098325490951538 190 153 112 255 1
4.93056392669677734 8.39435768127441406 0.382416635751724243 190 153 112 255 1
4.96903181076049805 8.40654850006103516 0.500626862049102783 190 153 112 255 1
5.07179880142211914 8.43504047393798828 0.313749194145202637 190 153 112 255 1
4.83576154708862305 8.36411857604980469 0.354994356632232666 190 153 112 255 1
4.86612558364868164 8.37779808044433594 0.369557559490203857 190 153 112 255 1
4.72863483428955078 8.32361602783203125 0.384395182132720947 190 153 112 255 1
4.73717975616455078 8.32622528076171875 0.338367044925689697 190 153 112 255 1
4.7827305793762207 8.34296321868896484 0.37238001823425293 190 153 112 255 1
4.7730097770690918 8.34027194976806641 0.326570421457290649 190 153 112 255 1
5.10099124908447266 8.43822193145751953 0.379594296216964722 190 153 112 255 1
5.16302871704101562 8.45896434783935547 0.375622957944869995 190 153 112 255 1
5.18261957168579102 8.46558570861816406 0.348656058311462402 190 153 112 255 1
4.82228517532348633 8.36854839324951172 0.528670847415924072 190 153 112 255 1
4.56377696990966797 8.28292655944824219 0.437796860933303833 190 153 112 255 1
4.96500015258789062 8.4069366455078125 0.435000002384185791 190 153 112 255 1
4.5925750732421875 8.29866504669189453 0.497011691331863403 190 153 112 255 1
4.62554073333740234 8.29690456390380859 0.516573131084442139 190 153 112 255 1
4.94478416442871094 8.39879608154296875 0.443855851888656616 190 153 112 255 1
4.65731954574584961 8.29599761962890625 0.248922064900398254 190 153 112 255 1
4.8647608757019043 8.37619590759277344 0.427892595529556274 190 153 112 255 1
4.90076303482055664 8.38146591186523438 0.397758424282073975 190 153 112 255 1
4.90603160858154297 8.38817691802978516 0.481332868337631226 190 153 112 255 1
4.61322450637817383 8.29700088500976562 0.422577798366546631 190 153 112 255 1
4.6038661003112793 8.301422119140625 0.458416581153869629 190 153 112 255 1
4.58090496063232422 8.28295135498046875 0.394067227840423584 190 153 112 255 1
4.66648769378662109 8.30853652954101562 0.348843514919281006 190 153 112 255 1
4.55556106567382812 8.28606128692626953 0.49247664213180542 190 153 112 255 1
4.74223566055297852 8.32555294036865234 0.409931093454360962 190 153 112 255 1
4.73941135406494141 8.33254241943359375 0.462491035461425781 190 153 112 255 1
4.70611906051635742 8.31761264801025391 0.466841399669647217 190 153 112 255 1
4.78939676284790039 8.35128116607666016 0.465378671884536743 190 153 112 255 1
4.67341852188110352 8.3108673095703125 0.409634649753570557 190 153 112 255 1
4.65411615371704102 8.30400180816650391 0.435139358043670654 190 153 112 255 1
4.62954187393188477 8.30103588104248047 0.471409350633621216 190 153 112 255 1
4.6835017204284668 8.3070831298828125 0.457092970609664917 190 153 112 255 1
5.33141183853149414 8.51240825653076172 0.530830681324005127 190 153 112 255 1
5.05789804458618164 8.42821216583251953 0.395822763442993164 190 153 112 255 1
5.00234079360961914 8.41671276092529297 0.367166906595230103 190 153 112 255 1
4.64171981811523438 8.28728961944580078 0.199670895934104919 190 153 112 255 1
4.64846181869506836 8.29297447204589844 0.160705730319023132 190 153 112 255 1
4.72858476638793945 8.32996845245361328 0.520281732082366943 190 153 112 255 1
5.39058637619018555 8.53155422210693359 0.503064095973968506 190 153 112 255 1
4.66841030120849609 8.30662918090820312 0.515711545944213867 190 153 112 255 1
4.57712841033935547 8.28006649017333984 0.314337760210037231 190 153 112 255 1
4.56412887573242188 8.27495765686035156 0.337165415287017822 190 153 112 255 1
4.58754730224609375 8.28036022186279297 0.36724439263343811 190 153 112 255 1
5.21211099624633789 8.47645092010498047 0.365981310606002808 190 153 112 255 1
4.59545278549194336 8.26981163024902344 0.146458148956298828 190 153 112 255 1
4.62535190582275391 8.27819919586181641 0.147761821746826172 190 153 112 255 1
5.13349819183349609 8.45473957061767578 0.460533678531646729 190 153 112 255 1
5.08710384368896484 8.44037342071533203 0.421115666627883911 190 153 112 255 1
5.03266048431396484 8.42562580108642578 0.422103703022003174 190 153 112 255 1
5.08626461029052734 8.44502830505371094 0.476913869380950928 190 153 112 255 1
4.53710079193115234 8.27277183532714844 0.354159444570541382 190 153 112 255 1
4.56464576721191406 8.26460361480712891 0.193875700235366821 190 153 112 255 1
4.60952329635620117 8.27132606506347656 0.223550871014595032 190 153 112 255 1
4.76036977767944336 8.33504199981689453 0.418465077877044678 190 153 112 255 1
4.82793092727661133 8.36470127105712891 0.441819608211517334 190 153 112 255 1
5.23840808868408203 8.48960590362548828 0.402556300163269043 190 153 112 255 1
5.22258663177490234 8.48461437225341797 0.45317995548248291 190 153 112 255 1
5.26654958724975586 8.49381637573242188 0.339874774217605591 190 153 112 255 1
5.13441324234008789 8.44941902160644531 0.349504411220550537 190 153 112 255 1
5.05378818511962891 8.43220233917236328 0.355338454246520996 190 153 112 255 1
4.54194784164428711 8.26755619049072266 0.279706478118896484 190 153 112 255 1
4.58109474182128906 8.26768779754638672 0.239035382866859436 190 153 112 255 1
4.61244678497314453 8.28921031951904297 0.304807186126708984 190 153 112 255 1
4.65782356262207031 8.30508995056152344 0.284855037927627563 190 153 112 255 1
4.67901229858398438 8.32391548156738281 1.04851722717285156 190 153 112 255 1
4.72739076614379883 8.33868217468261719 1.05200421810150146 190 153 112 255 1
5.2968745231628418 8.5186920166015625 0.860347211360931396 190 153 112 255 1
5.19867420196533203 8.48679924011230469 1.30668926239013672 190 153 112 255 1
5.27292394638061523 8.50500011444091797 0.505353927612304688 190 153 112 255 1
5.27635717391967773 8.50626754760742188 0.569089770317077637 190 153 112 255 1
5.17225885391235352 8.47749519348144531 0.914582192897796631 190 153 112 255 1
5.23533010482788086 8.49831390380859375 0.873636603355407715 190 153 112 255 1
5.25036907196044922 8.50445842742919922 0.911211848258972168 190 153 112 255 1
5.18123149871826172 8.48079395294189453 0.886924803256988525 190 153 112 255 1
5.06562423706054688 8.4372100830078125 1.02062356472015381 190 153 112 255 1
4.94055652618408203 8.40766143798828125 0.933747470378875732 190 153 112 255 1
4.91393852233886719 8.39714717864990234 0.970567584037780762 190 153 112 255 1
4.93368959426879883 8.40540790557861328 1.00345253944396973 190 153 112 255 1
4.8033447265625 8.34070873260498047 1.3214341402053833 190 153 112 255 1
4.84018039703369141 8.35748767852783203 1.28606343269348145 190 153 112 255 1
4.87268590927124023 8.36820125579833984 1.32395327091217041 190 153 112 255 1
5.01814174652099609 8.42372989654541016 0.919336974620819092 190 153 112 255 1
4.56250905990600586 8.26848316192626953 1.15383350849151611 190 153 112 255 1
4.64182710647583008 8.30276298522949219 1.14813542366027832 190 153 112 255 1
4.61988973617553711 8.29564857482910156 1.1249082088470459 190 153 112 255 1
4.62697982788085938 8.29088783264160156 1.16700232028961182 190 153 112 255 1
4.73533010482788086 8.34038352966308594 0.782356917858123779 190 153 112 255 1
4.7817535400390625 8.35303497314453125 0.744168221950531006 190 153 112 255 1
5.21432781219482422 8.48726844787597656 1.51863908767700195 190 153 112 255 1
5.24514579772949219 8.49096107482910156 1.49854457378387451 190 153 112 255 1
4.55636405944824219 8.24790096282958984 1.27759301662445068 190 153 112 255 1
4.60036993026733398 8.26404571533203125 1.32333314418792725 190 153 112 255 1
4.55028581619262695 8.24845695495605469 1.32255649566650391 190 153 112 255 1
4.8733367919921875 8.38727664947509766 0.860163986682891846 190 153 112 255 1
4.89087581634521484 8.39038848876953125 0.809600830078125 190 153 112 255 1
5.10590791702270508 8.45292758941650391 0.911885201930999756 190 153 112 255 1
5.04506349563598633 8.42718696594238281 0.884579062461853027 190 153 112 255 1
5.09104251861572266 8.44553852081298828 0.93940049409866333 190 153 112 255 1
4.99101734161376953 8.41875934600830078 0.868986427783966064 190 153 112 255 1
5.15802907943725586 8.47382164001464844 1.20198953151702881 190 153 112 255 1
4.89437484741210938 8.37887191772460938 1.22718751430511475 190 153 112 255 1
4.5725250244140625 8.28102874755859375 0.841591238975524902 190 153 112 255 1
4.5859217643737793 8.28676414489746094 0.81636512279510498 190 153 112 255 1
4.61240911483764648 8.29777812957763672 0.840218603610992432 190 153 112 255 1
5.40634489059448242 8.54902839660644531 0.640201747417449951 190 153 112 255 1
5.35592460632324219 8.52992725372314453 0.65012890100479126 190 153 112 255 1
4.61468315124511719 8.27328014373779297 1.19191873073577881 190 153 112 255 1
4.60949373245239258 8.26796817779541016 1.25830924510955811 190 153 112 255 1
4.60463523864746094 8.26566696166992188 1.28382790088653564 190 153 112 255 1
5.0014495849609375 8.41936874389648438 1.40993201732635498 190 153 112 255 1
4.98651790618896484 8.41201019287109375 1.4759521484375 190 153 112 255 1
5.13348245620727539 8.46508407592773438 1.37273931503295898 190 153 112 255 1
5.07306337356567383 8.44561672210693359 1.37537980079650879 190 153 112 255 1
5.04712963104248047 8.43525028228759766 1.44068682193756104 190 153 112 255 1
4.96875143051147461 8.40505218505859375 1.2911684513092041 190 153 112 255 1
4.795745849609375 8.34108734130859375 1.2421875 190 153 112 255 1
4.78872108459472656 8.33569526672363281 1.3627314567565918 190 153 112 255 1
4.80739498138427734 8.34150981903076172 1.41074371337890625 190 153 112 255 1
4.74052095413208008 8.31763172149658203 1.40155565738677979 190 153 112 255 1
4.7635045051574707 8.32442188262939453 1.38531398773193359 190 153 112 255 1
5.23579788208007812 8.49705123901367188 0.705021917819976807 190 153 112 255 1
5.23613786697387695 8.49585914611816406 0.792704224586486816 190 153 112 255 1
5.20700550079345703 8.48836994171142578 0.771075665950775146 190 153 112 255 1
5.29933261871337891 8.51275730133056641 1.32989108562469482 190 153 112 255 1
5.33416128158569336 8.52152347564697266 1.29875242710113525 190 153 112 255 1
5.27731132507324219 8.51606273651123047 1.01507723331451416 190 153 112 255 1
5.24499988555908203 8.50252914428710938 1.01499998569488525 190 153 112 255 1
5.26003551483154297 8.50900840759277344 0.9564322829246521 190 153 112 255 1
5.26275205612182617 8.50353145599365234 0.735372304916381836 190 153 112 255 1
5.31050634384155273 8.52131080627441406 0.738660991191864014 190 153 112 255 1
5.33205842971801758 8.52861881256103516 0.721797287464141846 190 153 112 255 1
5.28062868118286133 8.51240348815917969 0.774964630603790283 190 153 112 255 1
5.2877659797668457 8.51167869567871094 0.686563968658447266 190 153 112 255 1
4.75169944763183594 8.34494304656982422 0.839537441730499268 190 153 112 255 1
4.76555299758911133 8.35336589813232422 0.772126615047454834 190 153 112 255 1
4.81949520111083984 8.36553287506103516 0.846380949020385742 190 153 112 255 1
4.7588047981262207 8.35057640075683594 0.869391322135925293 190 153 112 255 1
4.83270168304443359 8.37340736389160156 0.870815157890319824 190 153 112 255 1
4.71728420257568359 8.33461666107177734 0.857504665851593018 190 153 112 255 1
4.95486307144165039 8.39851665496826172 1.46543896198272705 190 153 112 255 1
