ply
format ascii 1.0
element vertex 605
property float x
property float y
property float z
property uchar red
property uchar green
property uchar blue
property uchar alpha
property uint label
end_header
6.00197505950927734 3.28003740310668945 0.520377635955810547 190 153 112 255 1
6.0186467170715332 3.33116579055786133 0.515133082866668701 190 153 112 255 1
6.0292201042175293 3.37693405151367188 0.490552037954330444 190 153 112 255 1
5.8426966667175293 2.86603307723999023 0.223170742392539978 190 153 112 255 1
5.85405921936035156 2.89040517807006836 0.282253682613372803 190 153 112 255 1
6.02182149887084961 3.3872218132019043 0.370334327220916748 190 153 112 255 1
6.02028846740722656 3.3656158447265625 0.478958189487457275 190 153 112 255 1
6.02581787109375 3.39459514617919922 0.427754610776901245 190 153 112 255 1
5.81534767150878906 2.7505958080291748 0.290695309638977051 190 153 112 255 1
5.81056690216064453 2.7522890567779541 0.251259207725524902 190 153 112 255 1
5.82420682907104492 2.7930753231048584 0.282883942127227783 190 153 112 255 1
5.81509685516357422 2.73052120208740234 0.276606440544128418 190 153 112 255 1
6.04423904418945312 3.41355133056640625 0.543281257152557373 190 153 112 255 1
6.03721714019775391 3.41052460670471191 0.444045662879943848 190 153 112 255 1
5.82355546951293945 2.87443089485168457 0.132698655128479004 190 153 112 255 1
5.81466960906982422 2.83526968955993652 0.142324924468994141 190 153 112 255 1
5.88455438613891602 2.96613788604736328 0.410207480192184448 190 153 112 255 1
5.90664911270141602 3.01421594619750977 0.463072508573532104 190 153 112 255 1
5.93196678161621094 3.14144802093505859 0.319511741399765015 190 153 112 255 1
5.92029333114624023 3.08078956604003906 0.362658023834228516 190 153 112 255 1
5.91929292678833008 3.09250020980834961 0.307500004768371582 190 153 112 255 1
5.85645675659179688 2.65333461761474609 0.454934865236282349 190 153 112 255 1
5.96929025650024414 3.21396017074584961 0.477779746055603027 190 153 112 255 1
5.98203325271606445 3.24707841873168945 0.461594343185424805 190 153 112 255 1
5.96288156509399414 3.22315788269042969 0.376915872097015381 190 153 112 255 1
5.97790622711181641 3.24563789367675781 0.382844984531402588 190 153 112 255 1
5.82487726211547852 2.75508546829223633 0.508285343647003174 190 153 112 255 1
5.98886203765869141 3.25606036186218262 0.511913895606994629 190 153 112 255 1
5.813323974609375 2.74821901321411133 0.319046586751937866 190 153 112 255 1
5.82202768325805664 2.77091217041015625 0.397776395082473755 190 153 112 255 1
5.84134912490844727 2.83027386665344238 0.397812485694885254 190 153 112 255 1
5.81374979019165039 2.71842527389526367 0.361036568880081177 190 153 112 255 1
5.82384538650512695 2.78490161895751953 0.337369203567504883 190 153 112 255 1
5.81379938125610352 2.73969292640686035 0.385861814022064209 190 153 112 255 1
5.86530208587646484 2.64362215995788574 0.541569054126739502 190 153 112 255 1
5.89223766326904297 2.57249999046325684 0.514999985694885254 190 153 112 255 1
5.89937496185302734 3.01519060134887695 0.379734903573989868 190 153 112 255 1
5.90923738479614258 3.04496574401855469 0.336424708366394043 190 153 112 255 1
6.0588984489440918 3.46666049957275391 0.509045600891113281 190 153 112 255 1
5.82410526275634766 2.67785215377807617 0.36394047737121582 190 153 112 255 1
5.81874895095825195 2.70049357414245605 0.325700432062149048 190 153 112 255 1
5.82539081573486328 2.68045997619628906 0.411693006753921509 190 153 112 255 1
5.85246562957763672 2.88764023780822754 0.194313898682594299 190 153 112 255 1
5.8644556999206543 2.9373326301574707 0.190709561109542847 190 153 112 255 1
5.8266148567199707 2.67759346961975098 0.241595908999443054 190 153 112 255 1
5.99854707717895508 3.32562494277954102 0.269999980926513672 190 153 112 255 1
5.98242950439453125 3.26797342300415039 0.32275119423866272 190 153 112 255 1
5.88300704956054688 2.93131566047668457 0.517812490463256836 190 153 112 255 1
5.92539024353027344 3.08842563629150391 0.402359902858734131 190 153 112 255 1
5.91488742828369141 3.05246567726135254 0.452520072460174561 190 153 112 255 1
5.91631937026977539 3.0878453254699707 0.249439999461174011 190 153 112 255 1
5.92784214019775391 3.1335899829864502 0.177936926484107971 190 153 112 255 1
5.86812734603881836 2.94274377822875977 0.217395991086959839 190 153 112 255 1
5.88480806350708008 2.97499990463256836 0.294999986886978149 190 153 112 255 1
5.90838241577148438 3.04999971389770508 0.284999996423721313 190 153 112 255 1
5.82437944412231445 2.66854548454284668 0.313162088394165039 190 153 112 255 1
5.82456350326538086 2.68819737434387207 0.282397300004959106 190 153 112 255 1
5.84897041320800781 2.90053510665893555 0.162810370326042175 190 153 112 255 1
5.83536863327026367 2.90754437446594238 0.13743726909160614 190 153 112 255 1
5.83292627334594727 2.83286929130554199 0.221727639436721802 190 153 112 255 1
5.86448526382446289 2.90783452987670898 0.384662896394729614 190 153 112 255 1
5.87200069427490234 2.91503429412841797 0.425003319978713989 190 153 112 255 1
5.87655162811279297 2.92499995231628418 0.46249997615814209 190 153 112 255 1
5.83396053314208984 2.66016507148742676 0.46115991473197937 190 153 112 255 1
5.82898521423339844 2.68777155876159668 0.502014517784118652 190 153 112 255 1
5.82576608657836914 2.68397307395935059 0.473895937204360962 190 153 112 255 1
5.83514595031738281 2.6618034839630127 0.550763309001922607 190 153 112 255 1
5.82498645782470703 2.73888921737670898 0.540205478668212891 190 153 112 255 1
5.84305953979492188 2.82395052909851074 0.440078377723693848 190 153 112 255 1
5.83836126327514648 2.79837536811828613 0.485094547271728516 190 153 112 255 1
5.86144065856933594 2.86714267730712891 0.508359372615814209 190 153 112 255 1
6.03636884689331055 3.41499996185302734 0.394999980926513672 190 153 112 255 1
6.07360696792602539 3.51339006423950195 0.470469534397125244 190 153 112 255 1
6.05112123489379883 3.45499992370605469 0.459999978542327881 190 153 112 255 1
5.92675971984863281 3.07326865196228027 0.487499982118606567 190 153 112 255 1
5.93097400665283203 3.12481808662414551 0.373688250780105591 190 153 112 255 1
5.8598322868347168 2.89710450172424316 0.329472273588180542 190 153 112 255 1
5.86390447616577148 2.91537094116210938 0.284276962280273438 190 153 112 255 1
5.88184118270874023 2.96870136260986328 0.329167097806930542 190 153 112 255 1
5.87780570983886719 2.94625258445739746 0.379982918500900269 190 153 112 255 1
5.90807962417602539 2.54961156845092773 0.661259114742279053 190 153 112 255 1
5.89265537261962891 2.59043645858764648 0.635225117206573486 190 153 112 255 1
5.88587141036987305 2.61500000953674316 0.719999969005584717 190 153 112 255 1
5.89130067825317383 2.59359216690063477 0.674480736255645752 190 153 112 255 1
5.93439149856567383 3.00176143646240234 1.00624990463256836 190 153 112 255 1
6.01821804046630859 3.31750011444091797 0.617812514305114746 190 153 112 255 1
6.01810789108276367 3.32999992370605469 0.552500009536743164 190 153 112 255 1
5.86600875854492188 2.65985560417175293 0.786546409130096436 190 153 112 255 1
5.83719921112060547 2.7206418514251709 0.796666324138641357 190 153 112 255 1
5.84086132049560547 2.69264674186706543 0.829314768314361572 190 153 112 255 1
5.88598728179931641 2.63499975204467773 0.804999947547912598 190 153 112 255 1
5.85420894622802734 2.6573173999786377 0.799269497394561768 190 153 112 255 1
5.85534763336181641 2.65676188468933105 0.852049350738525391 190 153 112 255 1
5.87546443939208984 2.66165637969970703 0.843792080879211426 190 153 112 255 1
5.84349775314331055 2.69406890869140625 0.880530476570129395 190 153 112 255 1
5.84953403472900391 2.68075728416442871 0.843651115894317627 190 153 112 255 1
5.885284423828125 2.64397931098937988 0.854515790939331055 190 153 112 255 1
5.87561988830566406 2.65899324417114258 0.876543045043945312 190 153 112 255 1
5.89532470703125 2.90927815437316895 0.851829588413238525 190 153 112 255 1
5.89655637741088867 2.8010857105255127 1.29923462867736816 190 153 112 255 1
5.88711404800415039 2.76598072052001953 1.32484555244445801 190 153 112 255 1
5.89496088027954102 2.78299593925476074 1.33234012126922607 190 153 112 255 1
6.08815956115722656 3.50499987602233887 0.824999988079071045 190 153 112 255 1
6.00429916381835938 3.20871520042419434 1.07761478424072266 190 153 112 255 1
6.01492118835449219 3.22562956809997559 1.10865974426269531 190 153 112 255 1
5.82956600189208984 2.74249982833862305 0.600624978542327881 190 153 112 255 1
5.82759618759155273 2.73075628280639648 0.58789360523223877 190 153 112 255 1
5.95469856262207031 2.96643853187561035 1.42861723899841309 190 153 112 255 1
5.95572233200073242 2.98339700698852539 1.37321043014526367 190 153 112 255 1
5.97481966018676758 3.03428888320922852 1.40616345405578613 190 153 112 255 1
5.96326065063476562 3.00854229927062988 1.3551710844039917 190 153 112 255 1
5.86639690399169922 2.81613826751708984 0.918525159358978271 190 153 112 255 1
5.89360904693603516 2.60938644409179688 1.16720736026763916 190 153 112 255 1
5.91011524200439453 2.56726884841918945 1.18704843521118164 190 153 112 255 1
5.89082717895507812 2.61497139930725098 1.2391589879989624 190 153 112 255 1
6.05382108688354492 3.31742429733276367 1.33346354961395264 190 153 112 255 1
5.83108091354370117 2.72521305084228516 0.669595181941986084 190 153 112 255 1
5.8685917854309082 2.83934259414672852 0.818231642246246338 190 153 112 255 1
5.84471416473388672 2.75745248794555664 0.885797321796417236 190 153 112 255 1
5.86736202239990234 2.82572174072265625 0.855663061141967773 190 153 112 255 1
6.00156593322753906 3.25503921508789062 0.750911295413970947 190 153 112 255 1
5.91706752777099609 2.94288492202758789 1.0563119649887085 190 153 112 255 1
5.96152973175048828 3.04845094680786133 1.0951993465423584 190 153 112 255 1
5.94481277465820312 2.9883270263671875 1.09252643585205078 190 153 112 255 1
6.07299280166625977 3.37110114097595215 1.3787682056427002 190 153 112 255 1
6.08576583862304688 3.39778995513916016 1.45934224128723145 190 153 112 255 1
5.92513084411621094 2.86516761779785156 1.45004403591156006 190 153 112 255 1
5.91482734680175781 2.82503914833068848 1.54286623001098633 190 153 112 255 1
6.05661773681640625 3.42639803886413574 0.692812442779541016 190 153 112 255 1
6.07735252380371094 3.4771873950958252 0.788437485694885254 190 153 112 255 1
5.89386987686157227 2.81124114990234375 1.12698280811309814 190 153 112 255 1
5.87948703765869141 2.7586972713470459 1.17148137092590332 190 153 112 255 1
5.87485885620117188 2.74499988555908203 1.12999999523162842 190 153 112 255 1
5.90539073944091797 2.80405688285827637 1.4298698902130127 190 153 112 255 1
5.90737199783325195 2.83081412315368652 1.35580253601074219 190 153 112 255 1
5.91456174850463867 2.84749174118041992 1.31985604763031006 190 153 112 255 1
5.91488838195800781 2.83744144439697266 1.42626714706420898 190 153 112 255 1
5.90855121612548828 2.82145285606384277 1.45230424404144287 190 153 112 255 1
5.89738178253173828 2.79499983787536621 1.37999999523162842 190 153 112 255 1
6.00554418563842773 3.24614405632019043 0.949126660823822021 190 153 112 255 1
5.94954490661621094 3.06076860427856445 0.907932400703430176 190 153 112 255 1
5.94056558609008789 3.05184555053710938 0.840312480926513672 190 153 112 255 1
5.91087532043457031 2.56676149368286133 1.25 190 153 112 255 1
6.07209873199462891 3.50132203102111816 0.576624393463134766 190 153 112 255 1
6.08272314071655273 3.45702075958251953 1.10639238357543945 190 153 112 255 1
6.09944820404052734 3.49882221221923828 1.09706640243530273 190 153 112 255 1
5.87614202499389648 2.72686195373535156 1.17113387584686279 190 153 112 255 1
5.89508152008056641 2.66322827339172363 1.14706361293792725 190 153 112 255 1
5.88463115692138672 2.64678120613098145 1.17160129547119141 190 153 112 255 1
5.94424867630004883 3.07999992370605469 0.741250038146972656 190 153 112 255 1
5.94977378845214844 3.09268951416015625 0.781875014305114746 190 153 112 255 1
5.92833423614501953 3.06959247589111328 0.562343716621398926 190 153 112 255 1
5.94609832763671875 3.13231945037841797 0.514303743839263916 190 153 112 255 1
5.91237020492553711 2.9458470344543457 0.919999957084655762 190 153 112 255 1
5.967926025390625 3.19735527038574219 0.535322070121765137 190 153 112 255 1
5.86572265625 2.83133697509765625 0.787499964237213135 190 153 112 255 1
5.8826441764831543 2.88835716247558594 0.740824639797210693 190 153 112 255 1
5.99139070510864258 3.13106536865234375 1.16167306900024414 190 153 112 255 1
5.99698734283447266 3.16374993324279785 1.10991406440734863 190 153 112 255 1
5.83208942413330078 2.73999977111816406 0.69375002384185791 190 153 112 255 1
6.09278011322021484 3.50193142890930176 0.949674546718597412 190 153 112 255 1
6.07615470886230469 3.44733691215515137 0.954801380634307861 190 153 112 255 1
6.09327268600463867 3.50116753578186035 0.924404501914978027 190 153 112 255 1
5.96710300445556641 3.1048426628112793 0.960321009159088135 190 153 112 255 1
5.96202898025512695 3.08309364318847656 1.00321507453918457 190 153 112 255 1
6.08775997161865234 3.45903921127319336 1.13565254211425781 190 153 112 255 1
6.09096336364746094 3.4684135913848877 1.17821657657623291 190 153 112 255 1
6.09373712539672852 3.49420070648193359 1.14391398429870605 190 153 112 255 1
6.11131906509399414 3.4692533016204834 1.45597541332244873 190 153 112 255 1
6.09603309631347656 3.44857287406921387 1.37272870540618896 190 153 112 255 1
6.11363697052001953 3.50267386436462402 1.38379526138305664 190 153 112 255 1
6.10870027542114258 3.47786927223205566 1.39955294132232666 190 153 112 255 1
5.83695125579833984 2.72209811210632324 0.928595602512359619 190 153 112 255 1
5.84404897689819336 2.68066763877868652 0.924251377582550049 190 153 112 255 1
5.88556289672851562 2.653961181640625 0.92893826961517334 190 153 112 255 1
5.84402036666870117 2.70183324813842773 0.958349227905273438 190 153 112 255 1
5.85622978210449219 2.65935206413269043 0.90197455883026123 190 153 112 255 1
5.87461423873901367 2.66283631324768066 0.938557624816894531 190 153 112 255 1
5.99262142181396484 3.25287151336669922 0.62268441915512085 190 153 112 255 1
5.88055610656738281 2.70499992370605469 1.38687491416931152 190 153 112 255 1
5.87585544586181641 2.67673563957214355 1.37667298316955566 190 153 112 255 1
5.87885618209838867 2.64962911605834961 1.3874514102935791 190 153 112 255 1
6.05964183807373047 3.32262563705444336 1.39886617660522461 190 153 112 255 1
6.04955530166625977 3.30573463439941406 1.36145329475402832 190 153 112 255 1
6.04611015319824219 3.2753443717956543 1.39977145195007324 190 153 112 255 1
5.98944807052612305 3.11455821990966797 1.22956347465515137 190 153 112 255 1
5.99710512161254883 3.10080265998840332 1.52844345569610596 190 153 112 255 1
5.89732122421264648 2.59552359580993652 1.09764993190765381 190 153 112 255 1
5.90235757827758789 2.62490415573120117 1.07831358909606934 190 153 112 255 1
5.89684963226318359 2.60332679748535156 1.13468945026397705 190 153 112 255 1
5.90338134765625 2.54857587814331055 0.547500014305114746 190 153 112 255 1
6.03046512603759766 3.34090232849121094 0.694687485694885254 190 153 112 255 1
5.95263433456420898 2.98211216926574707 1.28365767002105713 190 153 112 255 1
5.93891716003417969 2.9522392749786377 1.22111153602600098 190 153 112 255 1
5.9558720588684082 3.00139093399047852 1.22410714626312256 190 153 112 255 1
5.92449522018432617 2.87233424186706543 1.39552688598632812 190 153 112 255 1
5.91834259033203125 2.8522951602935791 1.4476935863494873 190 153 112 255 1
5.83348560333251953 2.67452430725097656 0.638276755809783936 190 153 112 255 1
5.83024406433105469 2.71523785591125488 0.69357222318649292 190 153 112 255 1
6.07015132904052734 3.36286711692810059 1.44291698932647705 190 153 112 255 1
5.889617919921875 2.63499975204467773 0.888124942779541016 190 153 112 255 1
5.89254570007324219 2.5943748950958252 0.846249997615814209 190 153 112 255 1
5.9871211051940918 3.15342903137207031 1.07661008834838867 190 153 112 255 1
6.08775138854980469 3.47499990463256836 1.03499996662139893 190 153 112 255 1
6.09610080718994141 3.50092577934265137 0.996105194091796875 190 153 112 255 1
6.08440923690795898 3.44547367095947266 1.2109375 190 153 112 255 1
6.09969615936279297 3.48999977111816406 1.21812498569488525 190 153 112 255 1
6.10354757308959961 3.49513840675354004 1.30509650707244873 190 153 112 255 1
5.84572553634643555 2.81301093101501465 0.536270201206207275 190 153 112 255 1
5.86464786529541016 2.8571317195892334 0.593065142631530762 190 153 112 255 1
5.8624577522277832 2.8633110523223877 0.550204038619995117 190 153 112 255 1
6.10911035537719727 3.4450531005859375 1.4998319149017334 190 153 112 255 1
6.12174654006958008 3.50786137580871582 1.44558250904083252 190 153 112 255 1
5.88757705688476562 2.61500000953674316 0.829999983310699463 190 153 112 255 1
5.89261054992675781 2.59499979019165039 0.771250009536743164 190 153 112 255 1
5.84595489501953125 2.65138077735900879 0.553327262401580811 190 153 112 255 1
6.09786415100097656 3.42988014221191406 1.4532545804977417 190 153 112 255 1
6.08669137954711914 3.38214397430419922 1.51557421684265137 190 153 112 255 1
6.0752720832824707 3.35578060150146484 1.48967206478118896 190 153 112 255 1
5.84587192535400391 2.78659939765930176 0.665476322174072266 190 153 112 255 1
5.8672943115234375 2.8510735034942627 0.664470851421356201 190 153 112 255 1
5.87594032287597656 2.87443208694458008 0.712877631187438965 190 153 112 255 1
5.90248203277587891 2.5773773193359375 1.04157078266143799 190 153 112 255 1
5.89507389068603516 2.59967803955078125 1.01369500160217285 190 153 112 255 1
5.9000086784362793 2.63097262382507324 1.00229382514953613 190 153 112 255 1
5.98819828033447266 3.24663400650024414 0.572631657123565674 190 153 112 255 1
6.00315952301025391 3.27499985694885254 0.58749997615814209 190 153 112 255 1
5.88994884490966797 2.84412574768066406 1.06114387512207031 190 153 112 255 1
5.88692617416381836 2.79709982872009277 1.07350897789001465 190 153 112 255 1
5.90005350112915039 2.8395540714263916 1.08486819267272949 190 153 112 255 1
5.88955974578857422 2.75606775283813477 1.48261928558349609 190 153 112 255 1
5.89499998092651367 2.77111101150512695 1.47000002861022949 190 153 112 255 1
5.89836502075195312 2.78811049461364746 1.48438608646392822 190 153 112 255 1
5.86316776275634766 2.66400456428527832 0.960970163345336914 190 153 112 255 1
5.88177776336669922 2.6705174446105957 1.01843249797821045 190 153 112 255 1
5.84771203994750977 2.6932835578918457 0.99401700496673584 190 153 112 255 1
5.88663530349731445 2.66318869590759277 0.982709646224975586 190 153 112 255 1
5.87110710144042969 2.70531916618347168 1.03573727607727051 190 153 112 255 1
5.89757537841796875 2.9810936450958252 0.498593747615814209 190 153 112 255 1
5.8933558464050293 2.95254611968994141 0.587187528610229492 190 153 112 255 1
5.90933847427368164 3.00248908996582031 0.579843759536743164 190 153 112 255 1
5.87838172912597656 2.68499994277954102 1.41999995708465576 190 153 112 255 1
5.88115215301513672 2.67220306396484375 1.5331035852432251 190 153 112 255 1
5.88563394546508789 2.63455796241760254 1.43074405193328857 190 153 112 255 1
6.05462360382080078 3.28977513313293457 1.53333389759063721 190 153 112 255 1
5.83425760269165039 2.68627429008483887 0.711370766162872314 190 153 112 255 1
5.8652491569519043 2.65357446670532227 0.674561083316802979 190 153 112 255 1
5.87371206283569336 2.64294219017028809 0.681285560131072998 190 153 112 255 1
5.84511566162109375 2.65333414077758789 0.672106683254241943 190 153 112 255 1
5.91349172592163086 2.86627340316772461 1.12477457523345947 190 153 112 255 1
5.9004216194152832 2.81857633590698242 1.1832888126373291 190 153 112 255 1
6.00897789001464844 3.19744038581848145 1.1412498950958252 190 153 112 255 1
6.02709436416625977 3.26823973655700684 1.12234973907470703 190 153 112 255 1
5.89267826080322266 2.61281394958496094 0.956453144550323486 190 153 112 255 1
5.89028644561767578 2.6100001335144043 0.90937495231628418 190 153 112 255 1
5.89583873748779297 2.58742833137512207 0.945094764232635498 190 153 112 255 1
5.90952968597412109 2.55079936981201172 0.930860817432403564 190 153 112 255 1
5.97687625885009766 3.1960594654083252 0.715947091579437256 190 153 112 255 1
5.95444488525390625 3.13249993324279785 0.667500019073486328 190 153 112 255 1
6.0971522331237793 3.45430111885070801 1.32841014862060547 190 153 112 255 1
6.1126861572265625 3.50522541999816895 1.32969701290130615 190 153 112 255 1
5.879547119140625 2.7024998664855957 1.11249995231628418 190 153 112 255 1
5.89452695846557617 2.64866995811462402 1.02227163314819336 190 153 112 255 1
5.90157508850097656 2.63476037979125977 1.06433844566345215 190 153 112 255 1
5.90510129928588867 2.63801002502441406 1.13998281955718994 190 153 112 255 1
5.8833460807800293 2.68103957176208496 1.05235445499420166 190 153 112 255 1
5.90029525756835938 2.90896725654602051 0.954375028610229492 190 153 112 255 1
5.90421581268310547 2.95995283126831055 0.723938941955566406 190 153 112 255 1
6.0176548957824707 3.28597903251647949 0.816057741641998291 190 153 112 255 1
6.03306293487548828 3.34430837631225586 0.745000004768371582 190 153 112 255 1
6.04307937622070312 3.38718748092651367 0.684062480926513672 190 153 112 255 1
5.9955286979675293 3.22080254554748535 0.892336130142211914 190 153 112 255 1
5.94130802154541016 2.95755338668823242 1.19509327411651611 190 153 112 255 1
5.93340826034545898 2.93722414970397949 1.14584171772003174 190 153 112 255 1
5.95574569702148438 3.00349068641662598 1.16617560386657715 190 153 112 255 1
5.92296886444091797 2.53954672813415527 1.50486290454864502 190 153 112 255 1
5.94819927215576172 2.95499992370605469 1.39999997615814209 190 153 112 255 1
5.93391036987304688 2.90885448455810547 1.31642389297485352 190 153 112 255 1
5.89043903350830078 2.8809964656829834 1.00809812545776367 190 153 112 255 1
5.91100025177001953 2.93396520614624023 1.03120732307434082 190 153 112 255 1
5.95991182327270508 3.16750001907348633 0.542500019073486328 190 153 112 255 1
5.97314643859863281 3.1996605396270752 0.614374995231628418 190 153 112 255 1
5.94560909271240234 3.11745929718017578 0.590624988079071045 190 153 112 255 1
5.87101030349731445 2.83099198341369629 0.968840301036834717 190 153 112 255 1
5.84332942962646484 2.74611473083496094 1.00430643558502197 190 153 112 255 1
5.8564448356628418 2.75277495384216309 1.04035508632659912 190 153 112 255 1
5.85969018936157227 2.78678655624389648 1.02991724014282227 190 153 112 255 1
5.85387611389160156 2.72246551513671875 1.03453004360198975 190 153 112 255 1
5.96921634674072266 3.05952882766723633 1.1284947395324707 190 153 112 255 1
5.98164129257202148 3.09766745567321777 1.15786004066467285 190 153 112 255 1
5.96978139877319336 3.05084419250488281 1.2122645378112793 190 153 112 255 1
5.96379852294921875 3.12687492370605469 0.83124995231628418 190 153 112 255 1
5.97233104705810547 3.16435003280639648 0.804374933242797852 190 153 112 255 1
6.00457382202148438 3.12654566764831543 1.43499994277954102 190 153 112 255 1
5.90615177154541016 2.83555984497070312 1.22697114944458008 190 153 112 255 1
5.89510250091552734 2.79616260528564453 1.24394190311431885 190 153 112 255 1
5.88876914978027344 2.78830146789550781 1.20543897151947021 190 153 112 255 1
5.95919322967529297 3.0059816837310791 1.26321268081665039 190 153 112 255 1
5.96680116653442383 3.02469944953918457 1.36013436317443848 190 153 112 255 1
5.94717884063720703 2.96250009536743164 1.33875000476837158 190 153 112 255 1
5.89707469940185547 2.92372632026672363 0.801562488079071045 190 153 112 255 1
5.88626289367675781 2.74499988555908203 1.42499995231628418 190 153 112 255 1
5.88133144378662109 2.72499990463256836 1.41999995708465576 190 153 112 255 1
5.88835000991821289 2.7651829719543457 1.389640212059021 190 153 112 255 1
5.88509941101074219 2.74892950057983398 1.34110081195831299 190 153 112 255 1
5.89487457275390625 2.77671337127685547 1.39429259300231934 190 153 112 255 1
5.83505105972290039 2.74140691757202148 0.762615442276000977 190 153 112 255 1
5.83451509475708008 2.75049853324890137 0.738936483860015869 190 153 112 255 1
6.07887935638427734 3.5016636848449707 0.638334095478057861 190 153 112 255 1
6.04811382293701172 3.41624975204467773 0.58749997615814209 190 153 112 255 1
6.03995943069458008 3.38979864120483398 0.609150707721710205 190 153 112 255 1
5.90715551376342773 2.84018373489379883 1.28404605388641357 190 153 112 255 1
5.90590429306030273 2.82487392425537109 1.30627346038818359 190 153 112 255 1
5.89999532699584961 2.80565595626831055 1.34193789958953857 190 153 112 255 1
5.94873952865600586 2.94934439659118652 1.44900012016296387 190 153 112 255 1
5.93492603302001953 2.89798498153686523 1.453125 190 153 112 255 1
5.92874240875244141 2.88250017166137695 1.46531248092651367 190 153 112 255 1
5.94575834274291992 2.91998147964477539 1.55926978588104248 190 153 112 255 1
5.94468307495117188 2.92856454849243164 1.44558417797088623 190 153 112 255 1
5.94931268692016602 2.94213485717773438 1.55131471157073975 190 153 112 255 1
5.9390106201171875 2.91843318939208984 1.41971015930175781 190 153 112 255 1
5.87064647674560547 2.74078607559204102 1.06371057033538818 190 153 112 255 1
5.87365627288818359 2.7251439094543457 1.09345746040344238 190 153 112 255 1
5.83274650573730469 2.67499971389770508 0.573750019073486328 190 153 112 255 1
5.8867945671081543 2.91060256958007812 0.682163536548614502 190 153 112 255 1
5.84252262115478516 2.75669384002685547 0.813442349433898926 190 153 112 255 1
5.8368983268737793 2.73067164421081543 0.830519199371337891 190 153 112 255 1
5.84206295013427734 2.7550508975982666 0.861650288105010986 190 153 112 255 1
6.00700855255126953 3.16732120513916016 1.28616571426391602 190 153 112 255 1
5.99209308624267578 3.10959649085998535 1.31690168380737305 190 153 112 255 1
6.021575927734375 3.20491480827331543 1.34172308444976807 190 153 112 255 1
6.00751876831054688 3.15915226936340332 1.34996819496154785 190 153 112 255 1
6.02686452865600586 3.31284260749816895 0.802187442779541016 190 153 112 255 1
6.0104217529296875 3.26849031448364258 0.838988363742828369 190 153 112 255 1
6.04715871810913086 3.36180830001831055 0.908124983310699463 190 153 112 255 1
5.88161706924438477 2.63627815246582031 1.28821337223052979 190 153 112 255 1
5.91045379638671875 2.56836366653442383 1.30783545970916748 190 153 112 255 1
5.89716148376464844 2.5993199348449707 1.33456289768218994 190 153 112 255 1
5.88245773315429688 2.63800358772277832 1.31458413600921631 190 153 112 255 1
5.97609519958496094 3.05143451690673828 1.36685168743133545 190 153 112 255 1
5.96986722946166992 3.03991818428039551 1.28193581104278564 190 153 112 255 1
5.98651456832885742 3.10106205940246582 1.2658613920211792 190 153 112 255 1
5.98370170593261719 3.07562541961669922 1.3397296667098999 190 153 112 255 1
5.88594722747802734 2.77011919021606445 1.25187492370605469 190 153 112 255 1
5.87530183792114258 2.71195816993713379 1.21887826919555664 190 153 112 255 1
5.87898731231689453 2.73500657081604004 1.33051836490631104 190 153 112 255 1
5.87880086898803711 2.75 1.23500001430511475 190 153 112 255 1
5.98605775833129883 3.08892130851745605 1.35446822643280029 190 153 112 255 1
5.99499893188476562 3.10399818420410156 1.38221931457519531 190 153 112 255 1
5.98464012145996094 3.06668972969055176 1.39504790306091309 190 153 112 255 1
5.89258480072021484 2.89062976837158203 0.884999990463256836 190 153 112 255 1
5.89924955368041992 2.89258122444152832 1.04641103744506836 190 153 112 255 1
6.06451511383056641 3.41081118583679199 0.94345325231552124 190 153 112 255 1
6.05059623718261719 3.35225343704223633 1.08298826217651367 190 153 112 255 1
6.07156896591186523 3.41709566116333008 1.06735968589782715 190 153 112 255 1
6.04316997528076172 3.33364033699035645 1.00981569290161133 190 153 112 255 1
5.96979761123657227 3.12355756759643555 0.926787614822387695 190 153 112 255 1
5.91241693496704102 2.97298860549926758 0.783124983310699463 190 153 112 255 1
5.93140316009521484 2.94538259506225586 1.09308052062988281 190 153 112 255 1
5.91442298889160156 2.89292716979980469 1.07867276668548584 190 153 112 255 1
5.92510223388671875 2.90565299987792969 1.17150688171386719 190 153 112 255 1
5.84121274948120117 2.72978448867797852 0.89226222038269043 190 153 112 255 1
5.84274673461914062 2.75245857238769531 0.952359199523925781 190 153 112 255 1
5.86477899551391602 2.65435791015625 0.576699733734130859 190 153 112 255 1
5.84482097625732422 2.65067505836486816 0.607297718524932861 190 153 112 255 1
5.8722987174987793 2.64458966255187988 0.639982461929321289 190 153 112 255 1
5.86473464965820312 2.65409588813781738 0.604394018650054932 190 153 112 255 1
5.83951044082641602 2.77552890777587891 0.600951194763183594 190 153 112 255 1
6.03369903564453125 3.31957173347473145 0.891315937042236328 190 153 112 255 1
6.02272272109985352 3.28704285621643066 0.94552910327911377 190 153 112 255 1
6.03943347930908203 3.32411456108093262 0.967704892158508301 190 153 112 255 1
5.98351192474365234 3.13891959190368652 1.03060579299926758 190 153 112 255 1
5.97269535064697266 3.11501288414001465 0.997158467769622803 190 153 112 255 1
5.99508523941040039 3.19592761993408203 1.00624418258666992 190 153 112 255 1
5.91836071014404297 2.86500000953674316 1.35249996185302734 190 153 112 255 1
5.91626930236816406 2.86240196228027344 1.28480410575866699 190 153 112 255 1
5.98925209045410156 3.21443414688110352 0.829723000526428223 190 153 112 255 1
6.01098775863647461 3.28166103363037109 0.708566248416900635 190 153 112 255 1
5.99034309387207031 3.24094820022583008 0.664999961853027344 190 153 112 255 1
5.95460176467895508 3.12235164642333984 0.716356873512268066 190 153 112 255 1
5.96515417098999023 3.15124988555908203 0.759999990463256836 190 153 112 255 1
5.91065883636474609 2.85863018035888672 1.1524277925491333 190 153 112 255 1
5.83542346954345703 2.75369000434875488 0.706634581089019775 190 153 112 255 1
6.0443267822265625 3.38246965408325195 0.758077621459960938 190 153 112 255 1
6.01295852661132812 3.26337862014770508 0.893680334091186523 190 153 112 255 1
5.87572193145751953 2.66499996185302734 1.3274998664855957 190 153 112 255 1
5.87307262420654297 2.67145490646362305 1.2374725341796875 190 153 112 255 1
5.87831354141235352 2.71499991416931152 1.3049999475479126 190 153 112 255 1
5.87500953674316406 2.69097089767456055 1.31034481525421143 190 153 112 255 1
5.91649866104125977 2.86882758140563965 1.21172773838043213 190 153 112 255 1
6.0388035774230957 3.25273990631103516 1.35360550880432129 190 153 112 255 1
6.02398967742919922 3.23793911933898926 1.23621773719787598 190 153 112 255 1
6.02939748764038086 3.24230599403381348 1.30199205875396729 190 153 112 255 1
6.02719306945800781 3.2272036075592041 1.35065925121307373 190 153 112 255 1
6.01465702056884766 3.18188762664794922 1.32612740993499756 190 153 112 255 1
6.04756927490234375 3.37753891944885254 0.809374988079071045 190 153 112 255 1
6.05914306640625 3.40713882446289062 0.877812445163726807 190 153 112 255 1
5.97746658325195312 3.0678105354309082 1.28377866744995117 190 153 112 255 1
5.97676420211791992 3.07698392868041992 1.20442366600036621 190 153 112 255 1
5.97623491287231445 3.06199812889099121 1.25708675384521484 190 153 112 255 1
6.02454090118408203 3.19669699668884277 1.40783214569091797 190 153 112 255 1
6.03419017791748047 3.231231689453125 1.41380035877227783 190 153 112 255 1
6.03462696075439453 3.22090959548950195 1.44670236110687256 190 153 112 255 1
6.03095769882202148 3.1997065544128418 1.49935626983642578 190 153 112 255 1
6.04995393753051758 3.27451872825622559 1.46822106838226318 190 153 112 255 1
6.07588481903076172 3.37980985641479492 1.33447694778442383 190 153 112 255 1
5.95589303970336914 3.05865669250488281 1.0654221773147583 190 153 112 255 1
5.9797215461730957 3.1019585132598877 1.10791218280792236 190 153 112 255 1
5.9273223876953125 2.91457128524780273 1.22078967094421387 190 153 112 255 1
5.92481613159179688 2.89359426498413086 1.19085979461669922 190 153 112 255 1
5.91527462005615234 2.55669116973876953 1.46280503273010254 190 153 112 255 1
6.04615688323974609 3.33208990097045898 1.11970138549804688 190 153 112 255 1
6.04567670822143555 3.3227086067199707 1.18468749523162842 190 153 112 255 1
6.05551910400390625 3.35721850395202637 1.12676608562469482 190 153 112 255 1
5.89410400390625 2.93653964996337891 0.659999966621398926 190 153 112 255 1
6.01487493515014648 3.15021109580993652 1.52307796478271484 190 153 112 255 1
6.01847600936889648 3.17707252502441406 1.47635555267333984 190 153 112 255 1
6.01458358764648438 3.15802335739135742 1.43800008296966553 190 153 112 255 1
6.06531524658203125 3.392547607421875 1.13412976264953613 190 153 112 255 1
6.05846881866455078 3.36812496185302734 1.17875003814697266 190 153 112 255 1
5.87897777557373047 2.90622806549072266 0.585469365119934082 190 153 112 255 1
5.923828125 3.03017568588256836 0.672529697418212891 190 153 112 255 1
5.9445490837097168 3.09990978240966797 0.661875009536743164 190 153 112 255 1
5.99591064453125 3.21985840797424316 0.955883264541625977 190 153 112 255 1
5.96490955352783203 2.99930071830749512 1.44537472724914551 190 153 112 255 1
5.95804262161254883 2.98050856590270996 1.46680104732513428 190 153 112 255 1
5.96794033050537109 3.01256489753723145 1.48295736312866211 190 153 112 255 1
5.97915887832641602 3.05014133453369141 1.44087445735931396 190 153 112 255 1
5.98461532592773438 3.05508637428283691 1.48936247825622559 190 153 112 255 1
5.98841190338134766 3.079925537109375 1.44601106643676758 190 153 112 255 1
5.84485244750976562 2.65515875816345215 0.728261411190032959 190 153 112 255 1
5.86633586883544922 2.65678238868713379 0.71018671989440918 190 153 112 255 1
5.84410762786865234 2.67483687400817871 0.779334485530853271 190 153 112 255 1
5.87910938262939453 2.64547348022460938 0.749711751937866211 190 153 112 255 1
5.87555837631225586 2.65741968154907227 0.782940685749053955 190 153 112 255 1
5.92632675170898438 2.89355015754699707 1.28448235988616943 190 153 112 255 1
5.94083833694458008 2.94353199005126953 1.30357921123504639 190 153 112 255 1
5.93785381317138672 2.92674803733825684 1.34382796287536621 190 153 112 255 1
5.94462156295776367 2.93737697601318359 1.36683809757232666 190 153 112 255 1
5.92496824264526367 2.88218259811401367 1.29566085338592529 190 153 112 255 1
5.9278407096862793 2.89249992370605469 1.36500000953674316 190 153 112 255 1
6.0174260139465332 3.17740511894226074 1.41159403324127197 190 153 112 255 1
5.99621725082397461 3.12145686149597168 1.35673809051513672 190 153 112 255 1
6.01510334014892578 3.16679930686950684 1.38174378871917725 190 153 112 255 1
6.0052337646484375 3.13954377174377441 1.37212955951690674 190 153 112 255 1
6.00825309753417969 3.14506340026855469 1.44153380393981934 190 153 112 255 1
5.90702342987060547 2.57930660247802734 1.44489657878875732 190 153 112 255 1
5.8877711296081543 2.62791633605957031 1.50407755374908447 190 153 112 255 1
5.87896633148193359 2.64824414253234863 1.19855070114135742 190 153 112 255 1
5.87706851959228516 2.70291948318481445 1.19027388095855713 190 153 112 255 1
6.07544517517089844 3.41435933113098145 1.24765622615814209 190 153 112 255 1
6.05427122116088867 3.34676647186279297 1.2262500524520874 190 153 112 255 1
6.00456094741821289 3.17029190063476562 1.20660758018493652 190 153 112 255 1
5.99795246124267578 3.13971590995788574 1.25074923038482666 190 153 112 255 1
5.91904306411743164 2.97023415565490723 0.889336109161376953 190 153 112 255 1
6.06777667999267578 3.37337255477905273 1.30977702140808105 190 153 112 255 1
5.91931438446044922 2.54932117462158203 1.39612674713134766 190 153 112 255 1
5.89894294738769531 2.59491467475891113 1.40999996662139893 190 153 112 255 1
5.93672943115234375 3.01088714599609375 0.961845517158508301 190 153 112 255 1
5.93335294723510742 3.01020646095275879 0.930055975914001465 190 153 112 255 1
5.96968555450439453 3.1357119083404541 0.889687478542327881 190 153 112 255 1
6.06874895095825195 3.43648648262023926 0.857187509536743164 190 153 112 255 1
6.07925796508789062 3.47752285003662109 0.836874961853027344 190 153 112 255 1
5.94991350173950195 2.92092776298522949 1.66100335121154785 190 153 112 255 1
5.94664382934570312 2.91484236717224121 1.61493206024169922 190 153 112 255 1
5.941802978515625 2.89560937881469727 1.67384767532348633 190 153 112 255 1
5.93833780288696289 2.88275647163391113 1.65975713729858398 190 153 112 255 1
6.03882741928100586 3.09877800941467285 2.17924737930297852 190 153 112 255 1
6.03380775451660156 3.06657743453979492 2.22510170936584473 190 153 112 255 1
6.0296931266784668 3.06779074668884277 2.18927907943725586 190 153 112 255 1
5.92002344131469727 2.70187497138977051 1.76281249523162842 190 153 112 255 1
6.08111572265625 3.31712627410888672 1.90175485610961914 190 153 112 255 1
6.07631874084472656 3.29253029823303223 1.86766195297241211 190 153 112 255 1
5.97083234786987305 2.90458512306213379 1.93117856979370117 190 153 112 255 1
5.9913945198059082 2.91433358192443848 2.05600762367248535 190 153 112 255 1
5.99881172180175781 2.93623590469360352 2.02734470367431641 190 153 112 255 1
6.01690101623535156 2.5375664234161377 2.44934844970703125 190 153 112 255 1
5.94744396209716797 2.66062498092651367 1.91855525970458984 190 153 112 255 1
6.08506155014038086 3.19192051887512207 2.36407780647277832 190 153 112 255 1
6.08822345733642578 3.2206118106842041 2.31471920013427734 190 153 112 255 1
6.10045433044433594 3.26502633094787598 2.36547946929931641 190 153 112 255 1
6.09579658508300781 3.26831698417663574 2.34623599052429199 190 153 112 255 1
6.09595727920532227 3.21701192855834961 2.3606109619140625 190 153 112 255 1
6.0397334098815918 3.06523227691650391 2.31775522232055664 190 153 112 255 1
6.04354763031005859 3.20903897285461426 1.70963382720947266 190 153 112 255 1
6.05146646499633789 3.23893451690673828 1.695731520652771 190 153 112 255 1
6.04854154586791992 3.21265244483947754 1.745278000831604 190 153 112 255 1
5.93582820892333984 2.61243176460266113 1.66803538799285889 190 153 112 255 1
5.95503711700439453 2.57499980926513672 1.70437490940093994 190 153 112 255 1
5.97061681747436523 2.55959606170654297 1.74161791801452637 190 153 112 255 1
6.01366758346557617 2.54413318634033203 2.48322582244873047 190 153 112 255 1
5.98308753967285156 2.85849142074584961 2.14783525466918945 190 153 112 255 1
5.98472404479980469 2.9132850170135498 2.2444312572479248 190 153 112 255 1
5.99075889587402344 2.89646315574645996 2.194610595703125 190 153 112 255 1
6.07576227188110352 3.30381608009338379 1.78910517692565918 190 153 112 255 1
5.98398923873901367 3.04701399803161621 1.63604378700256348 190 153 112 255 1
5.98837375640869141 3.04621553421020508 1.66717207431793213 190 153 112 255 1
6.05145978927612305 3.12193727493286133 2.04471158981323242 190 153 112 255 1
6.06873416900634766 3.20784306526184082 2.01153826713562012 190 153 112 255 1
6.07493686676025391 3.19554042816162109 2.08066797256469727 190 153 112 255 1
6.10387897491455078 3.31811285018920898 2.0880119800567627 190 153 112 255 1
6.09916019439697266 3.31790947914123535 2.00049686431884766 190 153 112 255 1
6.10436201095581055 3.34936141967773438 2.01118588447570801 190 153 112 255 1
6.1087651252746582 3.33896112442016602 2.05923128128051758 190 153 112 255 1
5.96796083450317383 2.96401071548461914 1.7349923849105835 190 153 112 255 1
5.98491191864013672 3.01018643379211426 1.72922027111053467 190 153 112 255 1
5.97113847732543945 2.98374342918395996 1.6889803409576416 190 153 112 255 1
6.12705326080322266 3.42962932586669922 1.99846231937408447 190 153 112 255 1
6.11348819732666016 3.38716745376586914 1.98536467552185059 190 153 112 255 1
6.12725591659545898 3.42657947540283203 2.05742359161376953 190 153 112 255 1
6.11479330062866211 3.37624382972717285 2.02861952781677246 190 153 112 255 1
6.08361959457397461 3.32584571838378906 1.83125638961791992 190 153 112 255 1
5.97407722473144531 2.82645106315612793 2.19169282913208008 190 153 112 255 1
5.9762425422668457 2.87088680267333984 2.22668886184692383 190 153 112 255 1
5.96856880187988281 2.82191133499145508 2.22858500480651855 190 153 112 255 1
6.12810945510864258 3.40554165840148926 2.15988421440124512 190 153 112 255 1
6.13073539733886719 3.41297411918640137 2.10411953926086426 190 153 112 255 1
6.14344406127929688 3.44471645355224609 2.15773224830627441 190 153 112 255 1
5.99224281311035156 2.51953268051147461 1.87912929058074951 190 153 112 255 1
5.96245813369750977 2.91307973861694336 1.76781690120697021 190 153 112 255 1
5.94552898406982422 2.86392855644226074 1.76218152046203613 190 153 112 255 1
5.96724748611450195 2.93434429168701172 1.8075108528137207 190 153 112 255 1
6.10905027389526367 3.41361641883850098 1.74753832817077637 190 153 112 255 1
6.08304977416992188 3.34981918334960938 1.7249152660369873 190 153 112 255 1
6.09640312194824219 3.3851158618927002 1.69163703918457031 190 153 112 255 1
5.98947668075561523 2.92900991439819336 2.28835868835449219 190 153 112 255 1
6.07964944839477539 3.35519886016845703 1.6591191291809082 190 153 112 255 1
5.98661279678344727 2.62636518478393555 2.43915796279907227 190 153 112 255 1
5.9949183464050293 2.94108676910400391 2.23086428642272949 190 153 112 255 1
6.01945161819458008 3.16017866134643555 1.61257076263427734 190 153 112 255 1
5.92874050140380859 2.80627107620239258 1.78859114646911621 190 153 112 255 1
5.95079898834228516 2.85953521728515625 1.82202601432800293 190 153 112 255 1
5.92627286911010742 2.80441546440124512 1.75928521156311035 190 153 112 255 1
5.93590974807739258 2.81443619728088379 1.83501565456390381 190 153 112 255 1
6.00212621688842773 2.55991697311401367 2.35355520248413086 190 153 112 255 1
5.95740604400634766 2.97116875648498535 1.55829346179962158 190 153 112 255 1
5.97493553161621094 3.02203011512756348 1.57696878910064697 190 153 112 255 1
5.96399021148681641 2.98765182495117188 1.5333017110824585 190 153 112 255 1
5.95481586456298828 2.9548194408416748 1.52034533023834229 190 153 112 255 1
5.97461605072021484 3.02499294281005859 1.50020062923431396 190 153 112 255 1
5.96547174453735352 2.62932586669921875 2.07017040252685547 190 153 112 255 1
5.96782255172729492 2.61859607696533203 2.02096962928771973 190 153 112 255 1
5.96837234497070312 2.81999325752258301 2.10541939735412598 190 153 112 255 1
5.98575639724731445 2.86997342109680176 2.12253689765930176 190 153 112 255 1
5.96273183822631836 2.80028843879699707 2.12760829925537109 190 153 112 255 1
5.90808486938476562 2.81534194946289062 1.51969218254089355 190 153 112 255 1
5.90498924255371094 2.7964780330657959 1.52522826194763184 190 153 112 255 1
5.90588855743408203 2.63588976860046387 1.62226080894470215 190 153 112 255 1
5.91155529022216797 2.5896601676940918 1.61879622936248779 190 153 112 255 1
5.90429830551147461 2.59220671653747559 1.58712244033813477 190 153 112 255 1
5.89727687835693359 2.62322282791137695 1.61223316192626953 190 153 112 255 1
6.13031530380249023 3.44230318069458008 2.10846662521362305 190 153 112 255 1
6.13709402084350586 3.4663093090057373 2.08008861541748047 190 153 112 255 1
6.14506340026855469 3.46821188926696777 2.15408039093017578 190 153 112 255 1
6.14034461975097656 3.48730897903442383 2.11604571342468262 190 153 112 255 1
6.04913520812988281 3.18961834907531738 1.88694369792938232 190 153 112 255 1
6.03064918518066406 3.14806675910949707 1.84422576427459717 190 153 112 255 1
5.92827510833740234 2.74491095542907715 1.93653988838195801 190 153 112 255 1
5.945953369140625 2.78075814247131348 1.98055136203765869 190 153 112 255 1
5.93227529525756836 2.73437404632568359 1.97887134552001953 190 153 112 255 1
5.91068077087402344 2.67864370346069336 1.66565132141113281 190 153 112 255 1
6.0633244514465332 3.29912042617797852 1.62734091281890869 190 153 112 255 1
6.07098245620727539 3.31314802169799805 1.6684800386428833 190 153 112 255 1
5.9455561637878418 2.75742268562316895 2.07590246200561523 190 153 112 255 1
5.93793535232543945 2.72931241989135742 2.06988167762756348 190 153 112 255 1
6.00332450866699219 2.52715349197387695 2.08749985694885254 190 153 112 255 1
5.98571443557739258 2.57369017601013184 2.08909797668457031 190 153 112 255 1
5.98180818557739258 2.59914350509643555 2.12378883361816406 190 153 112 255 1
6.10523748397827148 3.39750003814697266 1.7974998950958252 190 153 112 255 1
6.10742282867431641 3.39011526107788086 1.84451842308044434 190 153 112 255 1
6.09853029251098633 3.26559257507324219 2.31771731376647949 190 153 112 255 1
6.11549186706542969 3.31378030776977539 2.29980325698852539 190 153 112 255 1
6.13088893890380859 3.36345410346984863 2.27528238296508789 190 153 112 255 1
6.11412429809570312 3.33227682113647461 2.26313161849975586 190 153 112 255 1
5.99450588226318359 3.08796167373657227 1.51427090167999268 190 153 112 255 1
6.00115871429443359 3.10170412063598633 1.59118592739105225 190 153 112 255 1
5.99807596206665039 2.91024327278137207 2.13774490356445312 190 153 112 255 1
6.00547599792480469 2.95274734497070312 2.11898636817932129 190 153 112 255 1
6.12513065338134766 3.47125005722045898 1.69937491416931152 190 153 112 255 1
6.1368412971496582 3.50137543678283691 1.76232504844665527 190 153 112 255 1
6.12002468109130859 3.36698818206787109 2.14362955093383789 190 153 112 255 1
6.11995410919189453 3.38705587387084961 2.18590092658996582 190 153 112 255 1
6.129791259765625 3.38933277130126953 2.24120163917541504 190 153 112 255 1
5.96810007095336914 2.99477219581604004 1.6474076509475708 190 153 112 255 1
5.95817995071411133 2.95047974586486816 1.66225206851959229 190 153 112 255 1
5.96421289443969727 2.97485876083374023 1.64500057697296143 190 153 112 255 1
6.01176691055297852 2.98248624801635742 2.06571578979492188 190 153 112 255 1
6.00939607620239258 2.98087167739868164 2.00697970390319824 190 153 112 255 1
5.95058059692382812 2.68001770973205566 2.34811091423034668 190 153 112 255 1
5.97077035903930664 2.62769246101379395 2.34865999221801758 190 153 112 255 1
6.08860206604003906 3.35500001907348633 1.77499997615814209 190 153 112 255 1
6.07337284088134766 3.31530904769897461 1.71506059169769287 190 153 112 255 1
6.06371784210205078 3.15610694885253906 2.26428818702697754 190 153 112 255 1
6.05102825164794922 3.12883210182189941 2.22717642784118652 190 153 112 255 1
5.89056253433227539 2.74499988555908203 1.55749988555908203 190 153 112 255 1
6.1410517692565918 3.43694424629211426 2.19590449333190918 190 153 112 255 1
6.14886379241943359 3.47917008399963379 2.18756580352783203 190 153 112 255 1
5.88082218170166016 2.65641617774963379 1.51010823249816895 190 153 112 255 1
6.11214828491210938 3.36110377311706543 2.08218073844909668 190 153 112 255 1
6.09845495223999023 3.30523109436035156 2.12767386436462402 190 153 112 255 1
6.09566116333007812 3.2903752326965332 2.0787045955657959 190 153 112 255 1
6.11549758911132812 3.33547163009643555 2.15336322784423828 190 153 112 255 1
6.05124282836914062 3.12267875671386719 2.15328526496887207 190 153 112 255 1
6.06429195404052734 3.1745765209197998 2.1732785701751709 190 153 112 255 1
6.07155466079711914 3.2006378173828125 2.13774418830871582 190 153 112 255 1
