ply
format ascii 1.0
element vertex 614
property float x
property float y
property float z
property uchar red
property uchar green
property uchar blue
property uchar alpha
property uint label
end_header
4.02804136276245117 8.06304645538330078 0.444401979446411133 255 229 2 221 35
4.02286577224731445 8.05118656158447266 0.45386156439781189 255 229 2 221 35
4.06600475311279297 8.04696846008300781 0.455924957990646362 255 229 2 221 35
4.05387687683105469 8.03961181640625 0.447454065084457397 255 229 2 221 35
4.02672100067138672 8.06840419769287109 0.47306591272354126 255 229 2 221 35
4.04378604888916016 8.03194427490234375 0.425547868013381958 255 229 2 221 35
4.179046630859375 7.65836000442504883 0.355509728193283081 255 229 2 221 35
4.12558507919311523 7.83642005920410156 0.126473888754844666 255 229 2 221 35
4.13321018218994141 7.8543858528137207 0.147135689854621887 255 229 2 221 35
4.10434293746948242 7.86097955703735352 0.26578184962272644 255 229 2 221 35
4.09089374542236328 7.91068124771118164 0.235071182250976562 255 229 2 221 35
4.07911491394042969 7.89906215667724609 0.42696651816368103 255 229 2 221 35
4.18097305297851562 7.65334415435791016 0.218378111720085144 255 229 2 221 35
4.17965793609619141 7.66371917724609375 0.265788376331329346 255 229 2 221 35
4.16709375381469727 7.6839747428894043 0.282779216766357422 255 229 2 221 35
4.19611358642578125 7.61277437210083008 0.2362862229347229 255 229 2 221 35
4.18952083587646484 7.62204837799072266 0.277137786149978638 255 229 2 221 35
4.10672664642333984 7.82431745529174805 0.351079374551773071 255 229 2 221 35
4.12625694274902344 7.76996231079101562 0.313412725925445557 255 229 2 221 35
4.1222076416015625 7.78834104537963867 0.340276509523391724 255 229 2 221 35
4.17280912399291992 7.54884815216064453 0.894455790519714355 255 229 2 221 35
4.03264284133911133 7.98759651184082031 0.959913074970245361 255 229 2 221 35
4.03064250946044922 7.9428248405456543 0.991063833236694336 255 229 2 221 35
4.03653097152709961 7.91879892349243164 0.97222435474395752 255 229 2 221 35
4.0224609375 7.97109889984130859 0.975047886371612549 255 229 2 221 35
4.13467693328857422 7.66590356826782227 0.824999988079071045 255 229 2 221 35
4.12651443481445312 7.68928718566894531 0.867499947547912598 255 229 2 221 35
4.10561466217041016 7.75459909439086914 0.857499957084655762 255 229 2 221 35
4.13537216186523438 7.7371673583984375 0.647669494152069092 255 229 2 221 35
4.14486789703369141 7.68127870559692383 0.695335745811462402 255 229 2 221 35
4.08240747451782227 8.04914474487304688 0.564166843891143799 255 229 2 221 35
4.08836507797241211 8.00986385345458984 0.572334170341491699 255 229 2 221 35
4.08123779296875 7.86582422256469727 0.528359055519104004 255 229 2 221 35
4.10232162475585938 7.80562353134155273 0.672928452491760254 255 229 2 221 35
4.16243314743041992 7.66673469543457031 0.653205037117004395 255 229 2 221 35
4.11144590377807617 7.81013727188110352 0.631066203117370605 255 229 2 221 35
4.11668539047241211 7.76785945892333984 0.576020359992980957 255 229 2 221 35
4.09520673751831055 7.82823801040649414 0.545217216014862061 255 229 2 221 35
4.15655231475830078 7.58566951751708984 0.945983648300170898 255 229 2 221 35
4.18584346771240234 7.53301668167114258 0.943697273731231689 255 229 2 221 35
4.03493928909301758 7.97045993804931641 0.868550956249237061 255 229 2 221 35
4.03232145309448242 7.98624086380004883 0.849536478519439697 255 229 2 221 35
4.03532552719116211 7.96043682098388672 0.829362869262695312 255 229 2 221 35
4.06895112991333008 8.00324630737304688 0.562011659145355225 255 229 2 221 35
4.04477930068969727 8.01211452484130859 0.6147727370262146 255 229 2 221 35
4.02855920791625977 8.03040790557861328 0.630651533603668213 255 229 2 221 35
4.13416957855224609 7.72266387939453125 0.60126030445098877 255 229 2 221 35
4.14049100875854492 7.67485189437866211 0.595002233982086182 255 229 2 221 35
4.15016698837280273 7.69122886657714844 0.629464864730834961 255 229 2 221 35
4.13383865356445312 7.74373912811279297 0.634039700031280518 255 229 2 221 35
4.06091117858886719 7.89874982833862305 0.709999978542327881 255 229 2 221 35
4.04778051376342773 7.93925046920776367 0.666140198707580566 255 229 2 221 35
4.09592580795288086 7.75012588500976562 0.955888688564300537 255 229 2 221 35
4.02589321136474609 7.98937511444091797 0.76874995231628418 255 229 2 221 35
4.05653285980224609 7.86990070343017578 0.965662300586700439 255 229 2 221 35
4.07754659652709961 7.82048940658569336 0.923441648483276367 255 229 2 221 35
4.04074382781982422 7.90903043746948242 0.941740274429321289 255 229 2 221 35
4.0082859992980957 8.06111812591552734 0.788122177124023438 255 229 2 221 35
4.00895166397094727 8.04460906982421875 0.759930431842803955 255 229 2 221 35
4.01323461532592773 8.02041530609130859 0.793955087661743164 255 229 2 221 35
4.11685037612915039 7.72263240814208984 0.80624997615814209 255 229 2 221 35
4.0734710693359375 7.84343671798706055 0.852187514305114746 255 229 2 221 35
4.20069980621337891 7.50911378860473633 0.956727206707000732 255 229 2 221 35
4.21200990676879883 7.51227045059204102 0.979965567588806152 255 229 2 221 35
4.12147188186645508 7.68968725204467773 0.914999961853027344 255 229 2 221 35
4.11114740371704102 7.69595813751220703 0.949960172176361084 255 229 2 221 35
4.19689178466796875 7.51893281936645508 0.739600539207458496 255 229 2 221 35
4.11049270629882812 7.75315475463867188 0.707900643348693848 255 229 2 221 35
4.13727188110351562 7.68236255645751953 0.717462003231048584 255 229 2 221 35
4.12172794342041016 7.71792840957641602 0.74374997615814209 255 229 2 221 35
4.13322639465332031 7.68499994277954102 0.77499997615814209 255 229 2 221 35
4.04067182540893555 7.95363235473632812 0.748749971389770508 255 229 2 221 35
4.03286838531494141 7.9863438606262207 0.65968477725982666 255 229 2 221 35
4.06232595443725586 7.94768095016479492 0.636844515800476074 255 229 2 221 35
4.04685163497924805 8.00297069549560547 0.632485508918762207 255 229 2 221 35
4.19103097915649414 7.55921459197998047 0.69667130708694458 255 229 2 221 35
4.21237850189208984 7.47761344909667969 0.685951650142669678 255 229 2 221 35
4.03414535522460938 7.98058843612670898 0.726770579814910889 255 229 2 221 35
4.02143096923828125 8.02677536010742188 0.652296900749206543 255 229 2 221 35
4.02212810516357422 8.04262161254882812 0.723844945430755615 255 229 2 221 35
4.06608915328979492 7.97474527359008789 0.564877510070800781 255 229 2 221 35
4.10325050354003906 7.83686590194702148 0.586896836757659912 255 229 2 221 35
4.09778213500976562 7.85732030868530273 0.599382758140563965 255 229 2 221 35
4.08845138549804688 7.89394283294677734 0.581365048885345459 255 229 2 221 35
4.04488134384155273 7.91537666320800781 0.906792163848876953 255 229 2 221 35
4.06477069854736328 7.87805652618408203 0.809062480926513672 255 229 2 221 35
4.17737483978271484 7.64132070541381836 0.638237535953521729 255 229 2 221 35
4.17687129974365234 7.60739946365356445 0.681723475456237793 255 229 2 221 35
4.17621707916259766 7.59244203567504883 0.707754015922546387 255 229 2 221 35
4.17141294479370117 7.58998632431030273 0.724519133567810059 255 229 2 221 35
4.07905101776123047 7.83649444580078125 0.779999971389770508 255 229 2 221 35
4.10419511795043945 7.7649993896484375 0.752499997615814209 255 229 2 221 35
4.10505533218383789 7.79658937454223633 0.554213464260101318 255 229 2 221 35
4.12988662719726562 7.64191436767578125 0.946818232536315918 255 229 2 221 35
4.15850353240966797 7.58933353424072266 0.899382829666137695 255 229 2 221 35
4.18579435348510742 7.63608455657958984 0.629518866539001465 255 229 2 221 35
4.17646980285644531 7.59971046447753906 0.631472647190093994 255 229 2 221 35
4.18575000762939453 7.62405252456665039 0.597403049468994141 255 229 2 221 35
4.15567350387573242 7.63708209991455078 0.596887052059173584 255 229 2 221 35
4.136138916015625 7.65805625915527344 0.856874942779541016 255 229 2 221 35
4.08728790283203125 7.82705068588256836 0.692185401916503906 255 229 2 221 35
4.1462092399597168 7.65124988555908203 0.757499992847442627 255 229 2 221 35
4.16407680511474609 7.59337520599365234 0.784402847290039062 255 229 2 221 35
4.16766166687011719 7.57767391204833984 0.813808143138885498 255 229 2 221 35
4.17781591415405273 7.54110145568847656 0.791891872882843018 255 229 2 221 35
4.17616939544677734 7.54527902603149414 0.854986190795898438 255 229 2 221 35
4.07818984985351562 7.85107231140136719 0.717499971389770508 255 229 2 221 35
4.06135797500610352 7.8899998664855957 0.759999990463256836 255 229 2 221 35
4.15615749359130859 7.6493229866027832 0.61644446849822998 255 229 2 221 35
4.0288701057434082 7.94305610656738281 0.950037598609924316 255 229 2 221 35
4.03561162948608398 7.98507881164550781 0.92544788122177124 255 229 2 221 35
4.03354215621948242 7.95913505554199219 0.913603007793426514 255 229 2 221 35
4.10013723373413086 7.75749969482421875 0.914999961853027344 255 229 2 221 35
4.07158041000366211 7.81712818145751953 0.953740835189819336 255 229 2 221 35
4.01810312271118164 8.01914882659912109 0.81702733039855957 255 229 2 221 35
4.07651329040527344 7.96947669982910156 0.620020806789398193 255 229 2 221 35
4.07682895660400391 7.91634702682495117 0.555325567722320557 255 229 2 221 35
4.07880163192749023 7.88717079162597656 0.649147510528564453 255 229 2 221 35
4.06862974166870117 7.82423162460327148 0.96790844202041626 255 229 2 221 35
4.06790304183959961 7.95995092391967773 0.606195151805877686 255 229 2 221 35
4.05639457702636719 7.99195766448974609 0.611258983612060547 255 229 2 221 35
4.05750036239624023 7.99839496612548828 0.580063819885253906 255 229 2 221 35
4.09201669692993164 7.86752557754516602 1.2118145227432251 255 229 2 221 35
4.09664487838745117 7.89373397827148438 1.21626019477844238 255 229 2 221 35
4.1672062873840332 7.895538330078125 1.20141136646270752 255 229 2 221 35
4.13106012344360352 7.91369438171386719 1.21713578701019287 255 229 2 221 35
4.09174394607543945 7.84854984283447266 1.1953810453414917 255 229 2 221 35
4.04371786117553711 7.98633623123168945 1.28808379173278809 255 229 2 221 35
4.16951227188110352 8.00416469573974609 1.18092882633209229 255 229 2 221 35
4.45095014572143555 7.75985956192016602 1.18291008472442627 255 229 2 221 35
4.44044971466064453 7.71265363693237305 1.18258416652679443 255 229 2 221 35
4.4087519645690918 7.70286035537719727 1.18198871612548828 255 229 2 221 35
4.22817516326904297 7.82597780227661133 1.17656064033508301 255 229 2 221 35
4.18528985977172852 7.82428884506225586 1.17835533618927002 255 229 2 221 35
4.1655125617980957 7.76349401473999023 1.17563223838806152 255 229 2 221 35
4.18722724914550781 7.76912069320678711 1.17262625694274902 255 229 2 221 35
4.23798274993896484 7.75965690612792969 1.173850417137146 255 229 2 221 35
4.19477748870849609 7.86994314193725586 1.1829303503036499 255 229 2 221 35
4.12818098068237305 7.86006069183349609 1.19493412971496582 255 229 2 221 35
4.14164161682128906 7.7743077278137207 1.17524170875549316 255 229 2 221 35
4.11400079727172852 7.82684946060180664 1.18282771110534668 255 229 2 221 35
4.15238237380981445 7.84386873245239258 1.18518459796905518 255 229 2 221 35
4.41901874542236328 7.91864681243896484 1.17633640766143799 255 229 2 221 35
4.31951141357421875 7.90740966796875 1.16371071338653564 255 229 2 221 35
4.30419635772705078 7.90873193740844727 1.17745494842529297 255 229 2 221 35
4.4844975471496582 7.71477031707763672 1.17910468578338623 255 229 2 221 35
4.26482295989990234 7.79460620880126953 1.17490649223327637 255 229 2 221 35
4.30205488204956055 7.80452919006347656 1.18010568618774414 255 229 2 221 35
4.31805706024169922 7.82323169708251953 1.17943751811981201 255 229 2 221 35
4.15921497344970703 7.95257043838500977 1.22040510177612305 255 229 2 221 35
4.32095670700073242 7.75286006927490234 1.17635631561279297 255 229 2 221 35
4.35330915451049805 7.74127483367919922 1.18135690689086914 255 229 2 221 35
4.34120368957519531 7.77976274490356445 1.17731797695159912 255 229 2 221 35
4.37727689743041992 7.7966465950012207 1.18113160133361816 255 229 2 221 35
4.37515544891357422 7.83821821212768555 1.17454302310943604 255 229 2 221 35
4.10925149917602539 7.95649194717407227 1.22344541549682617 255 229 2 221 35
4.09940814971923828 7.98911905288696289 1.23409509658813477 255 229 2 221 35
4.47217035293579102 7.60269594192504883 1.1799931526184082 255 229 2 221 35
4.52819585800170898 7.59481000900268555 1.1768113374710083 255 229 2 221 35
4.50812578201293945 7.62677669525146484 1.18178713321685791 255 229 2 221 35
4.47811412811279297 7.67338800430297852 1.18413937091827393 255 229 2 221 35
4.51778650283813477 7.63636350631713867 1.17477297782897949 255 229 2 221 35
4.05024528503417969 7.96861648559570312 1.24459218978881836 255 229 2 221 35
4.05083656311035156 7.9348907470703125 1.24485409259796143 255 229 2 221 35
4.06174612045288086 7.94365882873535156 1.22779262065887451 255 229 2 221 35
4.39040756225585938 7.69239091873168945 1.18175923824310303 255 229 2 221 35
4.40005731582641602 7.74226284027099609 1.18287789821624756 255 229 2 221 35
4.18660259246826172 7.99328136444091797 1.1741480827331543 255 229 2 221 35
4.20204448699951172 7.9053797721862793 1.18534815311431885 255 229 2 221 35
4.2254939079284668 7.8892207145690918 1.18108940124511719 255 229 2 221 35
4.25338983535766602 7.92686939239501953 1.17248308658599854 255 229 2 221 35
4.19350814819335938 7.95250988006591797 1.18161594867706299 255 229 2 221 35
4.17736196517944336 7.94673776626586914 1.1962817907333374 255 229 2 221 35
4.261383056640625 7.94573259353637695 1.1717379093170166 255 229 2 221 35
4.15045690536499023 8.03580188751220703 1.19724738597869873 255 229 2 221 35
4.51530361175537109 7.56231498718261719 1.18040096759796143 255 229 2 221 35
4.45971775054931641 7.65109777450561523 1.17988729476928711 255 229 2 221 35
4.06836462020874023 7.89326095581054688 1.23384034633636475 255 229 2 221 35
4.06677675247192383 7.86500692367553711 1.24183511734008789 255 229 2 221 35
4.33247804641723633 7.90848112106323242 1.1749567985534668 255 229 2 221 35
4.35409116744995117 7.82111024856567383 1.18245077133178711 255 229 2 221 35
4.34674501419067383 7.87284946441650391 1.18085336685180664 255 229 2 221 35
4.36439418792724609 8.05432415008544922 1.17522847652435303 255 229 2 221 35
4.45066452026367188 7.81780481338500977 1.17561888694763184 255 229 2 221 35
4.41983413696289062 7.78337812423706055 1.18006718158721924 255 229 2 221 35
4.25750017166137695 7.84875011444091797 1.17925596237182617 255 229 2 221 35
4.31257867813110352 7.86986637115478516 1.18118572235107422 255 229 2 221 35
4.27073812484741211 7.87437629699707031 1.17802393436431885 255 229 2 221 35
4.28188467025756836 8.16373634338378906 1.20708847045898438 255 229 2 221 35
4.27193260192871094 8.16250228881835938 1.23229730129241943 255 229 2 221 35
4.26679754257202148 8.17212486267089844 1.24527263641357422 255 229 2 221 35
4.3189997673034668 8.183685302734375 1.19086611270904541 255 229 2 221 35
4.19511985778808594 8.02473926544189453 1.18224036693572998 255 229 2 221 35
4.24666881561279297 8.01114177703857422 1.20552587509155273 255 229 2 221 35
4.29096698760986328 8.14552783966064453 1.1954348087310791 255 229 2 221 35
4.20339584350585938 8.04581356048583984 1.23315656185150146 255 229 2 221 35
4.19355058670043945 8.08257579803466797 1.24188601970672607 255 229 2 221 35
4.1723790168762207 8.11901187896728516 1.25466930866241455 255 229 2 221 35
4.20802164077758789 8.1266021728515625 1.25359845161437988 255 229 2 221 35
4.23986482620239258 8.15330982208251953 1.25624537467956543 255 229 2 221 35
4.40030956268310547 7.84542989730834961 1.17556393146514893 255 229 2 221 35
4.39570713043212891 7.90659904479980469 1.18285977840423584 255 229 2 221 35
4.34781932830810547 7.94533300399780273 1.17378854751586914 255 229 2 221 35
4.35332536697387695 7.93025541305541992 1.15783548355102539 255 229 2 221 35
4.31007766723632812 7.99837255477905273 1.18712520599365234 255 229 2 221 35
4.30878400802612305 8.07992744445800781 1.18966126441955566 255 229 2 221 35
4.271820068359375 8.10610294342041016 1.22182178497314453 255 229 2 221 35
4.26846933364868164 7.98450756072998047 1.19320261478424072 255 229 2 221 35
4.25733184814453125 8.02141761779785156 1.21564388275146484 255 229 2 221 35
4.33260059356689453 8.12268257141113281 1.18485379219055176 255 229 2 221 35
4.24014616012573242 7.98491144180297852 1.17945551872253418 255 229 2 221 35
4.29452276229858398 7.94344043731689453 1.18208527565002441 255 229 2 221 35
4.29020118713378906 7.99309206008911133 1.1953434944152832 255 229 2 221 35
4.1817936897277832 8.04142475128173828 1.23292100429534912 255 229 2 221 35
4.24006462097167969 8.08829307556152344 1.23811542987823486 255 229 2 221 35
4.18809223175048828 8.04259014129638672 1.19692039489746094 255 229 2 221 35
4.15499782562255859 8.04308891296386719 1.21028971672058105 255 229 2 221 35
4.33696079254150391 7.90372753143310547 1.15901291370391846 255 229 2 221 35
4.35128164291381836 7.90972185134887695 1.1728661060333252 255 229 2 221 35
4.37161588668823242 7.8836054801940918 1.17944025993347168 255 229 2 221 35
4.28707361221313477 8.10663223266601562 1.19720566272735596 255 229 2 221 35
4.24849700927734375 8.12329673767089844 1.24118411540985107 255 229 2 221 35
4.27272987365722656 8.04771614074707031 1.21480584144592285 255 229 2 221 35
4.33636379241943359 8.03027439117431641 1.18645775318145752 255 229 2 221 35
4.34942388534545898 8.05548191070556641 1.18287086486816406 255 229 2 221 35
4.33688879013061523 8.00023841857910156 1.18322813510894775 255 229 2 221 35
4.39604711532592773 7.94225454330444336 1.18292772769927979 255 229 2 221 35
4.42793369293212891 7.84442853927612305 1.18007540702819824 255 229 2 221 35
4.09743738174438477 7.45029973983764648 1.15043473243713379 255 229 2 221 35
4.10799598693847656 7.48294830322265625 1.1560288667678833 255 229 2 221 35
4.15052652359008789 7.441070556640625 1.1652756929397583 255 229 2 221 35
4.39459705352783203 7.25804615020751953 1.15055382251739502 255 229 2 221 35
4.39503240585327148 7.2149815559387207 1.14993298053741455 255 229 2 221 35
4.33000850677490234 7.22818899154663086 1.14960479736328125 255 229 2 221 35
4.36494016647338867 7.21608448028564453 1.14964962005615234 255 229 2 221 35
4.34026241302490234 7.03788042068481445 1.14498865604400635 255 229 2 221 35
4.32351398468017578 7.0858306884765625 1.14779603481292725 255 229 2 221 35
4.22952461242675781 7.16261625289916992 1.15001440048217773 255 229 2 221 35
4.19005441665649414 7.19300460815429688 1.14544403553009033 255 229 2 221 35
4.25614595413208008 7.23790311813354492 1.15223896503448486 255 229 2 221 35
4.30169582366943359 7.25390148162841797 1.15113341808319092 255 229 2 221 35
4.2737884521484375 7.2710423469543457 1.15374565124511719 255 229 2 221 35
4.28357362747192383 7.21651411056518555 1.15122628211975098 255 229 2 221 35
4.29488945007324219 7.23357200622558594 1.15055155754089355 255 229 2 221 35
4.24092864990234375 7.27065229415893555 1.15565741062164307 255 229 2 221 35
4.47718095779418945 7.26932334899902344 1.14958417415618896 255 229 2 221 35
4.50423479080200195 7.17604875564575195 1.14779138565063477 255 229 2 221 35
4.51037454605102539 7.24351930618286133 1.1481482982635498 255 229 2 221 35
4.42624998092651367 7.09926080703735352 1.14559245109558105 255 229 2 221 35
4.47115421295166016 7.12099266052246094 1.14525008201599121 255 229 2 221 35
4.44141149520874023 7.12409162521362305 1.1452326774597168 255 229 2 221 35
4.2532048225402832 7.08087587356567383 1.14545619487762451 255 229 2 221 35
4.2776188850402832 7.1025395393371582 1.15184056758880615 255 229 2 221 35
4.28102302551269531 7.15923404693603516 1.15081679821014404 255 229 2 221 35
4.30385446548461914 7.14750003814697266 1.14981937408447266 255 229 2 221 35
4.36907291412353516 7.08892440795898438 1.14557063579559326 255 229 2 221 35
4.41827058792114258 7.12060880661010742 1.14857220649719238 255 229 2 221 35
4.33777618408203125 7.16525840759277344 1.14882099628448486 255 229 2 221 35
4.1360783576965332 7.29633951187133789 1.1479346752166748 255 229 2 221 35
4.16368007659912109 7.30005025863647461 1.14969098567962646 255 229 2 221 35
4.51407146453857422 7.28466892242431641 1.14947187900543213 255 229 2 221 35
4.48634099960327148 7.3129429817199707 1.15042531490325928 255 229 2 221 35
4.34215879440307617 6.99034976959228516 1.14853763580322266 255 229 2 221 35
4.45007991790771484 7.23196554183959961 1.1486433744430542 255 229 2 221 35
4.41017627716064453 7.17055177688598633 1.14847779273986816 255 229 2 221 35
4.15505313873291016 7.2603001594543457 1.14497518539428711 255 229 2 221 35
4.21619462966918945 7.24550151824951172 1.15353357791900635 255 229 2 221 35
4.21086215972900391 7.26817131042480469 1.15582835674285889 255 229 2 221 35
4.22056961059570312 7.20997333526611328 1.15105688571929932 255 229 2 221 35
4.17963504791259766 7.23554468154907227 1.1452491283416748 255 229 2 221 35
4.4151763916015625 7.27129554748535156 1.15083134174346924 255 229 2 221 35
4.19746112823486328 7.31358957290649414 1.16519629955291748 255 229 2 221 35
4.18514108657836914 7.30343961715698242 1.15555751323699951 255 229 2 221 35
4.14958572387695312 7.36957406997680664 1.15668380260467529 255 229 2 221 35
4.2675933837890625 7.04426002502441406 1.14719045162200928 255 229 2 221 35
4.31275272369384766 7.0438389778137207 1.14987051486968994 255 229 2 221 35
4.45690774917602539 7.16944503784179688 1.14682173728942871 255 229 2 221 35
4.53818416595458984 7.15578603744506836 1.14571154117584229 255 229 2 221 35
4.03802633285522461 7.59095335006713867 1.15450704097747803 255 229 2 221 35
4.06042242050170898 7.53466606140136719 1.15251410007476807 255 229 2 221 35
4.0425114631652832 7.55058813095092773 1.16422593593597412 255 229 2 221 35
4.07754802703857422 7.49692964553833008 1.15196371078491211 255 229 2 221 35
4.02160930633544922 7.66967201232910156 1.15170228481292725 255 229 2 221 35
4.04915189743041992 7.6063685417175293 1.15434682369232178 255 229 2 221 35
4.02049064636230469 7.63230657577514648 1.16479957103729248 255 229 2 221 35
4.00415563583374023 7.68399906158447266 1.16508197784423828 255 229 2 221 35
4.07162904739379883 7.62911081314086914 1.16502809524536133 255 229 2 221 35
4.09145832061767578 7.50740385055541992 1.15385973453521729 255 229 2 221 35
4.10316371917724609 7.53919887542724609 1.16501140594482422 255 229 2 221 35
4.01823568344116211 7.69396162033081055 1.15393209457397461 255 229 2 221 35
4.00205326080322266 7.73737049102783203 1.16509056091308594 255 229 2 221 35
4.56125259399414062 7.22619056701660156 1.14716184139251709 255 229 2 221 35
4.61351585388183594 7.18747329711914062 1.14959609508514404 255 229 2 221 35
4.59553146362304688 7.21568679809570312 1.14843106269836426 255 229 2 221 35
4.59440231323242188 7.26474905014038086 1.15019023418426514 255 229 2 221 35
4.57128095626831055 7.26363563537597656 1.14872944355010986 255 229 2 221 35
4.63488006591796875 7.12928390502929688 1.14631974697113037 255 229 2 221 35
4.58807706832885742 7.18483543395996094 1.14500701427459717 255 229 2 221 35
4.57194185256958008 7.17466974258422852 1.14655101299285889 255 229 2 221 35
4.54519414901733398 7.18350124359130859 1.14475536346435547 255 229 2 221 35
4.34414577484130859 7.19127082824707031 1.03803634643554688 255 229 2 221 35
4.34279823303222656 7.19712352752685547 1.0638812780380249 255 229 2 221 35
4.35983896255493164 7.15270376205444336 1.07316160202026367 255 229 2 221 35
4.36273813247680664 7.13917636871337891 1.04029655456542969 255 229 2 221 35
4.40835380554199219 7.0391840934753418 1.02431607246398926 255 229 2 221 35
4.47776460647583008 6.85524177551269531 1.02482402324676514 255 229 2 221 35
4.40009832382202148 7.03864526748657227 1.04716598987579346 255 229 2 221 35
4.41635799407958984 7.00201272964477539 1.05665194988250732 255 229 2 221 35
4.44010066986083984 6.94549036026000977 1.03910601139068604 255 229 2 221 35
4.45026254653930664 6.9159245491027832 1.075400710105896 255 229 2 221 35
4.418609619140625 7.00887918472290039 1.03470933437347412 255 229 2 221 35
4.49291610717773438 6.82098627090454102 1.00172710418701172 255 229 2 221 35
4.50170373916625977 6.79360294342041016 1.01813173294067383 255 229 2 221 35
4.32125139236450195 7.26433753967285156 1.06352579593658447 255 229 2 221 35
4.37716865539550781 7.10185527801513672 1.05913066864013672 255 229 2 221 35
4.39758491516113281 7.05250024795532227 1.06356203556060791 255 229 2 221 35
4.46145391464233398 6.879180908203125 1.05945658683776855 255 229 2 221 35
4.47037744522094727 6.8634037971496582 1.07574236392974854 255 229 2 221 35
4.51933383941650391 6.72100448608398438 1.07396495342254639 255 229 2 221 35
4.51616621017456055 6.72976207733154297 1.05428588390350342 255 229 2 221 35
4.48629045486450195 6.80980777740478516 1.07548236846923828 255 229 2 221 35
4.53601169586181641 6.66916751861572266 1.04850649833679199 255 229 2 221 35
4.48747444152832031 6.80352449417114258 1.05074942111968994 255 229 2 221 35
4.5278010368347168 6.72198915481567383 1.02013957500457764 255 229 2 221 35
4.54570436477661133 6.67063379287719727 1.02010166645050049 255 229 2 221 35
4.58564281463623047 6.5618891716003418 1.02404880523681641 255 229 2 221 35
4.59527683258056641 6.50125694274902344 1.0557103157043457 255 229 2 221 35
4.57180500030517578 6.59199237823486328 1.01348483562469482 255 229 2 221 35
4.56331634521484375 6.58922338485717773 1.05749595165252686 255 229 2 221 35
4.54377841949462891 6.63807201385498047 1.06657505035400391 255 229 2 221 35
4.57808399200439453 6.54306316375732422 1.05216455459594727 255 229 2 221 35
4.5586390495300293 6.62807893753051758 1.02528786659240723 255 229 2 221 35
4.53617143630981445 6.44484424591064453 1.14864766597747803 255 229 2 221 35
4.33194780349731445 7.45779561996459961 1.1723322868347168 255 229 2 221 35
4.48726940155029297 6.99070549011230469 1.16277694702148438 255 229 2 221 35
4.56051158905029297 6.99244403839111328 1.16215038299560547 255 229 2 221 35
4.43496179580688477 7.1515507698059082 1.1673729419708252 255 229 2 221 35
4.35699701309204102 7.22631216049194336 1.17016351222991943 255 229 2 221 35
4.30083751678466797 7.44284915924072266 1.17534911632537842 255 229 2 221 35
4.22226333618164062 7.47747087478637695 1.16822218894958496 255 229 2 221 35
4.28596115112304688 7.51173877716064453 1.16864895820617676 255 229 2 221 35
4.41749954223632812 6.93562507629394531 1.15980935096740723 255 229 2 221 35
4.39058113098144531 7.30659103393554688 1.17160141468048096 255 229 2 221 35
4.33718776702880859 7.0709376335144043 1.16074717044830322 255 229 2 221 35
4.45625019073486328 6.80843734741210938 1.15566802024841309 255 229 2 221 35
4.36949014663696289 6.88876581192016602 1.15568089485168457 255 229 2 221 35
4.40443754196166992 6.82297563552856445 1.15493178367614746 255 229 2 221 35
4.37185430526733398 7.52221250534057617 1.17880833148956299 255 229 2 221 35
4.37147712707519531 7.46154165267944336 1.17683649063110352 255 229 2 221 35
4.49411153793334961 7.44427347183227539 1.17787253856658936 255 229 2 221 35
4.48474264144897461 7.42432880401611328 1.17378664016723633 255 229 2 221 35
4.39989662170410156 7.46325588226318359 1.17531800270080566 255 229 2 221 35
4.45399761199951172 7.43928623199462891 1.17534923553466797 255 229 2 221 35
4.48556709289550781 6.56099748611450195 1.14955747127532959 255 229 2 221 35
4.25574588775634766 7.29130744934082031 1.16583859920501709 255 229 2 221 35
4.2714543342590332 7.23538589477539062 1.16484570503234863 255 229 2 221 35
4.44112873077392578 6.95361137390136719 1.16265368461608887 255 229 2 221 35
4.20350360870361328 7.46534967422485352 1.16535210609436035 255 229 2 221 35
4.46819972991943359 7.21265649795532227 1.16872537136077881 255 229 2 221 35
4.43806076049804688 7.27432346343994141 1.16976773738861084 255 229 2 221 35
4.40468597412109375 7.08635377883911133 1.1656806468963623 255 229 2 221 35
4.28066158294677734 7.35999774932861328 1.16920602321624756 255 229 2 221 35
4.23347091674804688 7.43054437637329102 1.16940975189208984 255 229 2 221 35
4.29991626739501953 7.36780738830566406 1.17180633544921875 255 229 2 221 35
4.2761530876159668 7.42493295669555664 1.17163252830505371 255 229 2 221 35
4.44277381896972656 7.35351085662841797 1.17198383808135986 255 229 2 221 35
4.43020439147949219 7.4048614501953125 1.17389833927154541 255 229 2 221 35
4.48403596878051758 6.73146677017211914 1.15466630458831787 255 229 2 221 35
4.40801620483398438 6.78105545043945312 1.15199792385101318 255 229 2 221 35
4.53084087371826172 6.8618011474609375 1.15878462791442871 255 229 2 221 35
4.46485805511474609 6.83522415161132812 1.15796470642089844 255 229 2 221 35
4.3616485595703125 7.14531612396240234 1.16667330265045166 255 229 2 221 35
4.26740932464599609 7.17670440673828125 1.15999329090118408 255 229 2 221 35
4.30284023284912109 7.14420747756958008 1.1612774133682251 255 229 2 221 35
4.2777867317199707 7.20323514938354492 1.16113018989562988 255 229 2 221 35
4.30999946594238281 7.19999980926513672 1.16659212112426758 255 229 2 221 35
4.30636835098266602 7.04615020751953125 1.15867733955383301 255 229 2 221 35
4.34653139114379883 6.9640192985534668 1.15647077560424805 255 229 2 221 35
4.42251491546630859 7.20644807815551758 1.16758286952972412 255 229 2 221 35
4.37540817260742188 7.40999698638916016 1.17224419116973877 255 229 2 221 35
4.35164785385131836 7.3979792594909668 1.17312526702880859 255 229 2 221 35
4.22828006744384766 7.34020805358886719 1.16516208648681641 255 229 2 221 35
4.33727884292602539 7.28922080993652344 1.1698920726776123 255 229 2 221 35
4.46312379837036133 7.292694091796875 1.1694037914276123 255 229 2 221 35
4.46124982833862305 6.71749973297119141 1.15242815017700195 255 229 2 221 35
4.5078125 6.64968729019165039 1.15151059627532959 255 229 2 221 35
4.52567291259765625 7.06157302856445312 1.16470623016357422 255 229 2 221 35
4.37874984741210938 7.01406240463256836 1.16222906112670898 255 229 2 221 35
4.44934368133544922 6.6471552848815918 1.1509709358215332 255 229 2 221 35
4.5516667366027832 7.1300811767578125 1.16437935829162598 255 229 2 221 35
4.50616979598999023 6.77383327484130859 1.15545010566711426 255 229 2 221 35
4.53813648223876953 7.44400930404663086 1.17856061458587646 255 229 2 221 35
4.48995685577392578 7.49268198013305664 1.18013131618499756 255 229 2 221 35
4.3317723274230957 7.50779533386230469 1.1788862943649292 255 229 2 221 35
4.34234714508056641 7.65944671630859375 1.18106186389923096 255 229 2 221 35
4.4451451301574707 7.85483121871948242 1.16530478000640869 255 229 2 221 35
4.41568851470947266 7.57302474975585938 1.1820913553237915 255 229 2 221 35
4.44443798065185547 7.60020685195922852 1.17826676368713379 255 229 2 221 35
4.35207700729370117 7.57104301452636719 1.1784822940826416 255 229 2 221 35
4.32779073715209961 7.60859918594360352 1.17744612693786621 255 229 2 221 35
4.40122175216674805 7.52535343170166016 1.1785275936126709 255 229 2 221 35
4.26064968109130859 7.6509852409362793 1.17724812030792236 255 229 2 221 35
4.19989728927612305 7.61987829208374023 1.17500841617584229 255 229 2 221 35
4.22041082382202148 7.61421918869018555 1.17768263816833496 255 229 2 221 35
4.54809713363647461 7.56283187866210938 1.16431844234466553 255 229 2 221 35
4.46885967254638672 7.54152059555053711 1.18063247203826904 255 229 2 221 35
4.50455284118652344 7.538299560546875 1.17837977409362793 255 229 2 221 35
4.54576253890991211 7.52948093414306641 1.17598652839660645 255 229 2 221 35
4.24515199661254883 7.51288747787475586 1.1743694543838501 255 229 2 221 35
4.21306514739990234 7.54442691802978516 1.1653447151184082 255 229 2 221 35
4.28692865371704102 7.53164911270141602 1.17495930194854736 255 229 2 221 35
4.28845882415771484 7.60064411163330078 1.17992293834686279 255 229 2 221 35
4.25749969482421875 7.57499980926513672 1.17728018760681152 255 229 2 221 35
4.50733137130737305 7.68537616729736328 1.16491913795471191 255 229 2 221 35
4.73336029052734375 6.00423955917358398 1.15807521343231201 255 229 2 221 35
4.64751911163330078 6.02601099014282227 1.13521456718444824 255 229 2 221 35
4.64349746704101562 6.05567026138305664 1.14561367034912109 255 229 2 221 35
4.66250705718994141 6.05454778671264648 1.15609276294708252 255 229 2 221 35
4.71338844299316406 6.0523219108581543 1.15748369693756104 255 229 2 221 35
4.64692831039428711 6.03152275085449219 1.15843236446380615 255 229 2 221 35
4.58160829544067383 6.51758956909179688 1.15000367164611816 255 229 2 221 35
4.62544441223144531 6.11843061447143555 1.14610171318054199 255 229 2 221 35
4.91378164291381836 5.86994218826293945 1.14708757400512695 255 229 2 221 35
4.9140477180480957 5.89042901992797852 1.13848519325256348 255 229 2 221 35
4.87436676025390625 5.87677097320556641 1.13620328903198242 255 229 2 221 35
4.94542074203491211 5.88080596923828125 1.14789021015167236 255 229 2 221 35
4.94825410842895508 5.91115951538085938 1.14311826229095459 255 229 2 221 35
4.95178556442260742 6.4119720458984375 1.14556050300598145 255 229 2 221 35
4.6422576904296875 6.26460886001586914 1.14873707294464111 255 229 2 221 35
4.94777297973632812 6.07464456558227539 1.14457046985626221 255 229 2 221 35
5.11369514465332031 5.84936428070068359 1.1420360803604126 255 229 2 221 35
4.54716777801513672 6.38801908493041992 1.14741730690002441 255 229 2 221 35
4.99187469482421875 6.10999965667724609 1.14520406723022461 255 229 2 221 35
4.80663633346557617 5.70903253555297852 1.13582873344421387 255 229 2 221 35
4.7476811408996582 5.74185562133789062 1.14143550395965576 255 229 2 221 35
4.75560522079467773 5.67626285552978516 1.1244349479675293 255 229 2 221 35
4.76211118698120117 5.69208812713623047 1.13601064682006836 255 229 2 221 35
4.71750354766845703 5.68051338195800781 1.14531099796295166 255 229 2 221 35
4.83659839630126953 5.96395349502563477 1.14279043674468994 255 229 2 221 35
4.90218734741210938 5.98593759536743164 1.14414501190185547 255 229 2 221 35
4.8965606689453125 5.94423294067382812 1.14269006252288818 255 229 2 221 35
4.75478172302246094 5.87716102600097656 1.13536512851715088 255 229 2 221 35
4.75279903411865234 5.84094142913818359 1.1358945369720459 255 229 2 221 35
4.71297454833984375 5.78517961502075195 1.14556622505187988 255 229 2 221 35
4.690277099609375 5.75529193878173828 1.14764058589935303 255 229 2 221 35
4.67901039123535156 5.79419565200805664 1.14812493324279785 255 229 2 221 35
4.6550908088684082 5.8352961540222168 1.14902794361114502 255 229 2 221 35
4.61527538299560547 5.9434351921081543 1.1500551700592041 255 229 2 221 35
4.73583412170410156 5.66561079025268555 1.14522385597229004 255 229 2 221 35
4.6771082878112793 6.39385414123535156 1.14741373062133789 255 229 2 221 35
4.88361644744873047 5.73356246948242188 1.13588154315948486 255 229 2 221 35
4.73234176635742188 6.28808784484863281 1.14685964584350586 255 229 2 221 35
4.94124984741210938 6.24031257629394531 1.14704108238220215 255 229 2 221 35
4.95131683349609375 5.75579261779785156 1.13591158390045166 255 229 2 221 35
5.03101253509521484 5.8425593376159668 1.14288675785064697 255 229 2 221 35
5.00057077407836914 5.82591009140014648 1.15545213222503662 255 229 2 221 35
4.93068408966064453 5.81447362899780273 1.15657758712768555 255 229 2 221 35
4.86268711090087891 5.81005334854125977 1.15527832508087158 255 229 2 221 35
4.85822772979736328 5.78422164916992188 1.14407908916473389 255 229 2 221 35
5.0240626335144043 6.12275362014770508 1.14645648002624512 255 229 2 221 35
5.07000303268432617 6.09075689315795898 1.13568425178527832 255 229 2 221 35
5.0487065315246582 6.11814212799072266 1.14471113681793213 255 229 2 221 35
5.02560615539550781 6.19124269485473633 1.14477241039276123 255 229 2 221 35
4.81283998489379883 6.17284536361694336 1.14526009559631348 255 229 2 221 35
4.799072265625 5.74218034744262695 1.139373779296875 255 229 2 221 35
4.82477378845214844 5.7816624641418457 1.14154946804046631 255 229 2 221 35
4.76224231719970703 5.81678867340087891 1.14059793949127197 255 229 2 221 35
4.79816436767578125 6.32234382629394531 1.14719939231872559 255 229 2 221 35
4.61757040023803711 5.99997472763061523 1.15227878093719482 255 229 2 221 35
4.65224123001098633 5.96986961364746094 1.15758740901947021 255 229 2 221 35
4.65998601913452148 5.93533182144165039 1.15084946155548096 255 229 2 221 35
4.69889593124389648 5.92371225357055664 1.14088821411132812 255 229 2 221 35
5.00504970550537109 5.80348348617553711 1.14424192905426025 255 229 2 221 35
5.09493398666381836 5.80820655822753906 1.13536107540130615 255 229 2 221 35
5.05364894866943359 5.81470203399658203 1.14109289646148682 255 229 2 221 35
5.029510498046875 6.20930719375610352 1.13505256175994873 255 229 2 221 35
4.99595165252685547 6.20587015151977539 1.14736425876617432 255 229 2 221 35
4.75444507598876953 5.9559321403503418 1.1434025764465332 255 229 2 221 35
4.77675199508666992 5.97873353958129883 1.14430224895477295 255 229 2 221 35
4.69189214706420898 5.95629310607910156 1.15588045120239258 255 229 2 221 35
4.71230459213256836 6.41703128814697266 1.14835906028747559 255 229 2 221 35
4.82164096832275391 6.41867160797119141 1.1494373083114624 255 229 2 221 35
4.6492457389831543 5.74162483215332031 1.12504386901855469 255 229 2 221 35
4.66933774948120117 5.69364595413208008 1.12015283107757568 255 229 2 221 35
4.68564939498901367 5.68611049652099609 1.13422787189483643 255 229 2 221 35
4.68586540222167969 5.72416305541992188 1.14471578598022461 255 229 2 221 35
4.66428136825561523 5.71096706390380859 1.13467609882354736 255 229 2 221 35
4.72035408020019531 5.70779800415039062 1.14804184436798096 255 229 2 221 35
4.69831418991088867 5.72519636154174805 1.14777052402496338 255 229 2 221 35
4.93246269226074219 5.79451560974121094 1.14481735229492188 255 229 2 221 35
4.86757564544677734 5.83976173400878906 1.15405094623565674 255 229 2 221 35
4.61865091323852539 6.19712638854980469 1.14871442317962646 255 229 2 221 35
4.6194605827331543 6.14744949340820312 1.14944589138031006 255 229 2 221 35
4.9334712028503418 6.40194559097290039 1.15054011344909668 255 229 2 221 35
4.95633459091186523 6.33388805389404297 1.14941048622131348 255 229 2 221 35
5.13235330581665039 5.84310579299926758 1.13560354709625244 255 229 2 221 35
5.14052295684814453 5.88465070724487305 1.13726961612701416 255 229 2 221 35
4.85500001907348633 6.19499969482421875 1.14616811275482178 255 229 2 221 35
4.848785400390625 5.86759090423583984 1.14557349681854248 255 229 2 221 35
4.79481267929077148 5.84542751312255859 1.1479954719543457 255 229 2 221 35
4.82067155838012695 5.89478588104248047 1.13770711421966553 255 229 2 221 35
4.68660783767700195 6.10445165634155273 1.1488417387008667 255 229 2 221 35
4.64367961883544922 6.10749149322509766 1.15188860893249512 255 229 2 221 35
4.81271648406982422 6.48283481597900391 1.1505424976348877 255 229 2 221 35
4.64287662506103516 6.29460525512695312 1.14685630798339844 255 229 2 221 35
4.59296846389770508 6.41984367370605469 1.1484379768371582 255 229 2 221 35
4.63180875778198242 5.90517663955688477 1.14973318576812744 255 229 2 221 35
4.73749971389770508 6.21499967575073242 1.14586412906646729 255 229 2 221 35
5.07353305816650391 5.99583292007446289 1.14443409442901611 255 229 2 221 35
5.07097864151000977 6.05404806137084961 1.14327454566955566 255 229 2 221 35
4.73514986038208008 6.0656580924987793 1.1464465856552124 255 229 2 221 35
4.76852655410766602 6.03130722045898438 1.14409983158111572 255 229 2 221 35
4.74656248092651367 6.11505126953125 1.1457669734954834 255 229 2 221 35
4.99462604522705078 6.30836582183837891 1.13527917861938477 255 229 2 221 35
4.98867416381835938 6.30326938629150391 1.14528453350067139 255 229 2 221 35
5.10688877105712891 5.95576286315917969 1.14146256446838379 255 229 2 221 35
5.10771608352661133 5.91870737075805664 1.14392900466918945 255 229 2 221 35
5.04249954223632812 5.96109390258789062 1.1435387134552002 255 229 2 221 35
4.69624519348144531 5.70545530319213867 1.0761566162109375 255 229 2 221 35
5.10996818542480469 5.97680902481079102 1.13518393039703369 255 229 2 221 35
4.68802976608276367 5.83603143692016602 1.14820528030395508 255 229 2 221 35
4.66501569747924805 5.90737342834472656 1.14874267578125 255 229 2 221 35
4.70551824569702148 5.86936283111572266 1.14009690284729004 255 229 2 221 35
4.63741779327392578 5.86513090133666992 1.14908087253570557 255 229 2 221 35
4.91071367263793945 6.47925853729248047 1.1508939266204834 255 229 2 221 35
4.90124988555908203 6.38374996185302734 1.14911580085754395 255 229 2 221 35
4.56077814102172852 6.29671669006347656 1.14560902118682861 255 229 2 221 35
4.58338737487792969 6.23759365081787109 1.14492392539978027 255 229 2 221 35
4.59125566482543945 6.25439262390136719 1.14455568790435791 255 229 2 221 35
4.61269950866699219 6.04463672637939453 1.14541041851043701 255 229 2 221 35
4.6133723258972168 6.01294565200805664 1.13638341426849365 255 229 2 221 35
4.76940059661865234 6.56461620330810547 1.15218281745910645 255 229 2 221 35
4.50479841232299805 6.83294582366943359 1.15706920623779297 255 229 2 221 35
4.55063819885253906 6.59499549865722656 1.15120124816894531 255 229 2 221 35
4.60089588165283203 6.59413862228393555 1.15175104141235352 255 229 2 221 35
4.68100595474243164 6.48763656616210938 1.1496880054473877 255 229 2 221 35
4.53783035278320312 6.88480615615844727 1.15918636322021484 255 229 2 221 35
4.64152431488037109 6.951507568359375 1.16162800788879395 255 229 2 221 35
4.6961822509765625 6.93404817581176758 1.15959501266479492 255 229 2 221 35
4.72583341598510742 6.96753215789794922 1.16173207759857178 255 229 2 221 35
4.88896274566650391 6.59783315658569336 1.14543485641479492 255 229 2 221 35
4.64570951461791992 7.21778059005737305 1.16949725151062012 255 229 2 221 35
4.68105268478393555 7.14919424057006836 1.16559553146362305 255 229 2 221 35
4.65977573394775391 7.15591287612915039 1.16948533058166504 255 229 2 221 35
4.52703952789306641 7.28911590576171875 1.17081916332244873 255 229 2 221 35
4.60119724273681641 7.21486759185791016 1.16960859298706055 255 229 2 221 35
4.56365585327148438 7.21719646453857422 1.1671297550201416 255 229 2 221 35
4.60373735427856445 7.24102973937988281 1.16938519477844238 255 229 2 221 35
4.61959648132324219 7.26109600067138672 1.1716381311416626 255 229 2 221 35
4.87626314163208008 6.59054183959960938 1.15252542495727539 255 229 2 221 35
4.85906219482421875 6.48812484741210938 1.15115189552307129 255 229 2 221 35
4.86432266235351562 6.56532621383666992 1.153159499168396 255 229 2 221 35
4.59775400161743164 6.73750782012939453 1.15453171730041504 255 229 2 221 35
4.71065378189086914 6.66332149505615234 1.15427899360656738 255 229 2 221 35
4.60322284698486328 6.68983936309814453 1.1537022590637207 255 229 2 221 35
4.54633140563964844 6.70747041702270508 1.15293467044830322 255 229 2 221 35
4.59080171585083008 6.6434478759765625 1.15215682983398438 255 229 2 221 35
4.70393133163452148 6.78057479858398438 1.15636539459228516 255 229 2 221 35
4.52785730361938477 7.32919597625732422 1.17101931571960449 255 229 2 221 35
4.69395685195922852 7.06390953063964844 1.16453540325164795 255 229 2 221 35
4.70679855346679688 7.10751581192016602 1.15492582321166992 255 229 2 221 35
4.63562726974487305 7.30323219299316406 1.16637778282165527 255 229 2 221 35
4.81460666656494141 6.61525201797485352 1.15319669246673584 255 229 2 221 35
4.60959529876708984 7.02222871780395508 1.16243493556976318 255 229 2 221 35
4.58960819244384766 7.36403226852416992 1.17789626121520996 255 229 2 221 35
4.62038564682006836 7.28974246978759766 1.1757361888885498 255 229 2 221 35
4.61636114120483398 7.3211212158203125 1.17573356628417969 255 229 2 221 35
4.54355812072753906 7.35684728622436523 1.17211174964904785 255 229 2 221 35
4.56492900848388672 7.35375022888183594 1.17635679244995117 255 229 2 221 35
4.56223773956298828 6.94169330596923828 1.16096699237823486 255 229 2 221 35
4.69757795333862305 6.53460931777954102 1.15084123611450195 255 229 2 221 35
4.6627659797668457 6.62084388732910156 1.15242338180541992 255 229 2 221 35
4.57390069961547852 7.16108798980712891 1.16661381721496582 255 229 2 221 35
4.6407170295715332 7.13467884063720703 1.16565978527069092 255 229 2 221 35
4.602447509765625 7.40191888809204102 1.16541600227355957 255 229 2 221 35
4.58536243438720703 7.40415096282958984 1.1753387451171875 255 229 2 221 35
4.56003332138061523 7.47613811492919922 1.17765367031097412 255 229 2 221 35
4.74644613265991211 6.70294427871704102 1.15469300746917725 255 229 2 221 35
4.62842178344726562 7.06586170196533203 1.1629035472869873 255 229 2 221 35
4.65654611587524414 7.23702669143676758 1.16613972187042236 255 229 2 221 35
4.71741485595703125 7.04514455795288086 1.16122972965240479 255 229 2 221 35
4.75604772567749023 6.96239280700683594 1.155220627784729 255 229 2 221 35
4.73096990585327148 6.85805988311767578 1.15868878364562988 255 229 2 221 35
4.61798715591430664 6.8122406005859375 1.15778326988220215 255 229 2 221 35
4.75531244277954102 6.76406192779541016 1.156624436378479 255 229 2 221 35
4.63371944427490234 6.8507695198059082 1.15793490409851074 255 229 2 221 35
4.63985967636108398 6.9141850471496582 1.15966534614562988 255 229 2 221 35
4.79277658462524414 6.76164627075195312 1.1577448844909668 255 229 2 221 35
4.82974004745483398 6.72642850875854492 1.15563631057739258 255 229 2 221 35
4.84449100494384766 6.72550249099731445 1.14572322368621826 255 229 2 221 35
4.81105804443359375 6.79930925369262695 1.15541791915893555 255 229 2 221 35
4.82379531860351562 6.78922367095947266 1.14472246170043945 255 229 2 221 35
4.77005243301391602 6.94188356399536133 1.14511299133300781 255 229 2 221 35
4.74826860427856445 6.94352245330810547 1.16002452373504639 255 229 2 221 35
4.76092004776000977 6.88269472122192383 1.1602928638458252 255 229 2 221 35
4.57290506362915039 7.4899144172668457 1.16539204120635986 255 229 2 221 35
4.53494453430175781 6.55194091796875 0.72507774829864502 255 229 2 221 35
4.54198980331420898 6.52952337265014648 0.766093730926513672 255 229 2 221 35
4.53279304504394531 6.54658889770507812 0.848564505577087402 255 229 2 221 35
4.54313230514526367 6.50267791748046875 0.964640915393829346 255 229 2 221 35
4.53272199630737305 6.53999996185302734 0.901250004768371582 255 229 2 221 35
4.48114728927612305 6.78444337844848633 0.233599245548248291 255 229 2 221 35
4.36102056503295898 7.04590892791748047 0.510580301284790039 255 229 2 221 35
4.32766056060791016 7.14289236068725586 0.511277854442596436 255 229 2 221 35
4.34352016448974609 7.09097003936767578 0.508275687694549561 255 229 2 221 35
4.28052425384521484 7.32786798477172852 0.496818959712982178 255 229 2 221 35
4.27447795867919922 7.33587646484375 0.515458881855010986 255 229 2 221 35
4.2897801399230957 7.27949380874633789 0.507118642330169678 255 229 2 221 35
4.26331138610839844 7.34984207153320312 0.472573727369308472 255 229 2 221 35
4.22446966171264648 7.50347518920898438 0.393884927034378052 255 229 2 221 35
4.23478078842163086 7.48641538619995117 0.358058303594589233 255 229 2 221 35
4.26768636703491211 7.39883279800415039 0.187092319130897522 255 229 2 221 35
4.2785801887512207 7.35815906524658203 0.202221095561981201 255 229 2 221 35
4.26456356048583984 7.37030887603759766 0.224400967359542847 255 229 2 221 35
