ply
format ascii 1.0
element vertex 612
property float x
property float y
property float z
property uchar red
property uchar green
property uchar blue
property uchar alpha
property uint label
end_header
2.48555207252502441 0.499143749475479126 0.981890082359313965 213 255 0 249 7
2.49314117431640625 0.477499991655349731 0.860625028610229492 213 255 0 249 7
2.47648882865905762 0.52569955587387085 0.957468390464782715 213 255 0 249 7
2.46189069747924805 0.315866976976394653 1.4644782543182373 213 255 0 249 7
2.46622276306152344 0.272002488374710083 1.38213920593261719 213 255 0 249 7
2.46756982803344727 0.291562497615814209 1.41062498092651367 213 255 0 249 7
2.46846485137939453 0.234382882714271545 1.39959466457366943 213 255 0 249 7
2.45515847206115723 0.333938479423522949 1.5959773063659668 213 255 0 249 7
2.46027255058288574 0.293593734502792358 1.52718746662139893 213 255 0 249 7
2.46757030487060547 0.221269860863685608 1.51383161544799805 213 255 0 249 7
2.4525146484375 0.350649893283843994 1.54926943778991699 213 255 0 249 7
2.404937744140625 0.515722393989562988 1.59519815444946289 213 255 0 249 7
2.33924126625061035 0.497425347566604614 1.7334144115447998 213 255 0 249 7
2.38716673851013184 0.490105718374252319 1.72509431838989258 213 255 0 249 7
2.34562945365905762 0.540880203247070312 1.73802435398101807 213 255 0 249 7
2.31917786598205566 0.524982333183288574 1.73570811748504639 213 255 0 249 7
2.46000385284423828 0.294999986886978149 1.62999999523162842 213 255 0 249 7
2.47461581230163574 0.172644719481468201 1.65865135192871094 213 255 0 249 7
2.46410799026489258 0.193286344408988953 1.61866915225982666 213 255 0 249 7
2.46135807037353516 0.287355244159698486 1.69524180889129639 213 255 0 249 7
2.42281103134155273 0.453368872404098511 1.70393717288970947 213 255 0 249 7
2.40678572654724121 0.475113481283187866 1.71548473834991455 213 255 0 249 7
2.41377425193786621 0.514999985694885254 1.52499997615814209 213 255 0 249 7
2.40492677688598633 0.568328619003295898 1.52588558197021484 213 255 0 249 7
2.40593099594116211 0.515253245830535889 1.57456183433532715 213 255 0 249 7
2.33752346038818359 0.454134702682495117 1.7275930643081665 213 255 0 249 7
2.37582898139953613 0.453103154897689819 1.73524880409240723 213 255 0 249 7
2.40193080902099609 0.534999966621398926 1.66249990463256836 213 255 0 249 7
2.39723038673400879 0.410540670156478882 1.73292624950408936 213 255 0 249 7
2.38719725608825684 0.330633163452148438 1.72528588771820068 213 255 0 249 7
2.45494842529296875 0.332749664783477783 1.70039105415344238 213 255 0 249 7
2.43335127830505371 0.3203277587890625 1.73101842403411865 213 255 0 249 7
2.43284416198730469 0.376202374696731567 1.71798062324523926 213 255 0 249 7
2.40773940086364746 0.353588730096817017 1.7239985466003418 213 255 0 249 7
2.4204249382019043 0.366851061582565308 1.72841858863830566 213 255 0 249 7
2.43308544158935547 0.426434189081192017 1.57906246185302734 213 255 0 249 7
2.46629667282104492 0.192765116691589355 1.56745827198028564 213 255 0 249 7
2.46341228485107422 0.226249992847442627 1.55749988555908203 213 255 0 249 7
2.47447609901428223 0.190236002206802368 1.51451802253723145 213 255 0 249 7
2.41382646560668945 0.241334035992622375 1.72810685634613037 213 255 0 249 7
2.44469976425170898 0.267911314964294434 1.73529505729675293 213 255 0 249 7
2.41820549964904785 0.314935535192489624 1.72300481796264648 213 255 0 249 7
2.40621304512023926 0.307770520448684692 1.72304868698120117 213 255 0 249 7
2.45218706130981445 0.22941647469997406 1.74356687068939209 213 255 0 249 7
2.42655324935913086 0.45387876033782959 1.62312495708465576 213 255 0 249 7
2.41707515716552734 0.489999979734420776 1.66249990463256836 213 255 0 249 7
2.44458937644958496 0.402999907732009888 1.62296342849731445 213 255 0 249 7
2.44905471801757812 0.382093876600265503 1.65575611591339111 213 255 0 249 7
2.46717047691345215 0.208476424217224121 1.70680153369903564 213 255 0 249 7
2.46706533432006836 0.198068603873252869 1.723602294921875 213 255 0 249 7
2.45433211326599121 0.275755554437637329 1.72516810894012451 213 255 0 249 7
2.45634174346923828 0.348542064428329468 1.62649214267730713 213 255 0 249 7
2.30826044082641602 0.81844407320022583 0.217715427279472351 213 255 0 249 7
2.28442072868347168 0.816444516181945801 0.17434258759021759 213 255 0 249 7
2.28632473945617676 0.804873406887054443 0.212390199303627014 213 255 0 249 7
2.31691145896911621 1.05535900592803955 0.39783787727355957 213 255 0 249 7
2.30431222915649414 0.805351853370666504 0.385609596967697144 213 255 0 249 7
2.31696271896362305 0.855941414833068848 0.404183536767959595 213 255 0 249 7
2.39463686943054199 0.724074006080627441 0.284829288721084595 213 255 0 249 7
2.36510181427001953 0.749373018741607666 0.296844035387039185 213 255 0 249 7
2.36455321311950684 0.750513076782226562 0.242876842617988586 213 255 0 249 7
2.31339764595031738 0.845660269260406494 0.061923690140247345 213 255 0 249 7
2.46224451065063477 0.567408859729766846 0.136104971170425415 213 255 0 249 7
2.41245579719543457 0.637009739875793457 0.144201219081878662 213 255 0 249 7
2.4147336483001709 0.57920372486114502 0.0988816767930984497 213 255 0 249 7
2.30015015602111816 0.918641984462738037 0.0639465749263763428 213 255 0 249 7
2.29940986633300781 0.926606953144073486 0.0800566598773002625 213 255 0 249 7
2.30957484245300293 0.777439475059509277 0.0632296353578567505 213 255 0 249 7
2.31770968437194824 0.873122811317443848 0.29173588752746582 213 255 0 249 7
2.12021040916442871 1.07198786735534668 0.0845633223652839661 213 255 0 249 7
2.13760280609130859 1.09337270259857178 0.102210879325866699 213 255 0 249 7
2.14439034461975098 1.08323431015014648 0.0740396454930305481 213 255 0 249 7
2.23906898498535156 1.19082987308502197 0.184481874108314514 213 255 0 249 7
2.41003584861755371 0.729460954666137695 0.228795707225799561 213 255 0 249 7
2.47539758682250977 0.558360040187835693 0.152340486645698547 213 255 0 249 7
2.46476054191589355 0.601284146308898926 0.186809524893760681 213 255 0 249 7
2.4521021842956543 0.633144140243530273 0.204576268792152405 213 255 0 249 7
2.29827141761779785 0.79095458984375 0.554589509963989258 213 255 0 249 7
2.3646085262298584 0.748745620250701904 0.399975478649139404 213 255 0 249 7
2.36664414405822754 0.738184094429016113 0.341543763875961304 213 255 0 249 7
2.39491486549377441 0.714466869831085205 0.324590981006622314 213 255 0 249 7
2.3264622688293457 1.00535857677459717 0.387757748365402222 213 255 0 249 7
2.31576943397521973 1.04044580459594727 0.469243288040161133 213 255 0 249 7
2.32720398902893066 0.964599311351776123 0.431558102369308472 213 255 0 249 7
2.32568979263305664 0.977499961853027344 0.476249992847442627 213 255 0 249 7
2.26725172996520996 0.776726782321929932 0.125152260065078735 213 255 0 249 7
2.2894139289855957 0.73850548267364502 0.0734227672219276428 213 255 0 249 7
2.28259062767028809 0.779005110263824463 0.102057643234729767 213 255 0 249 7
2.26394867897033691 0.759376108646392822 0.0972542092204093933 213 255 0 249 7
2.3107600212097168 0.871418952941894531 0.19864654541015625 213 255 0 249 7
2.32622170448303223 0.952416539192199707 0.333724439144134521 213 255 0 249 7
2.32743096351623535 0.933306097984313965 0.386664241552352905 213 255 0 249 7
2.32378029823303223 0.879852533340454102 0.378102093935012817 213 255 0 249 7
2.30681681632995605 0.781288802623748779 0.424314707517623901 213 255 0 249 7
2.28353428840637207 0.787530601024627686 0.468011915683746338 213 255 0 249 7
2.30458354949951172 0.785450637340545654 0.455669045448303223 213 255 0 249 7
2.2878110408782959 0.754519224166870117 0.416693776845932007 213 255 0 249 7
2.2765803337097168 0.765570342540740967 0.385714590549468994 213 255 0 249 7
2.44495129585266113 0.62604290246963501 0.277051836252212524 213 255 0 249 7
2.41775131225585938 0.688717424869537354 0.250371396541595459 213 255 0 249 7
2.42317533493041992 0.66631925106048584 0.267995268106460571 213 255 0 249 7
2.29989051818847656 0.840574204921722412 0.164674550294876099 213 255 0 249 7
2.3076014518737793 0.859564423561096191 0.0858734175562858582 213 255 0 249 7
2.31014633178710938 0.872262418270111084 0.137214496731758118 213 255 0 249 7
2.30398726463317871 0.833279252052307129 0.124991163611412048 213 255 0 249 7
2.30141997337341309 0.799414992332458496 0.0873162522912025452 213 255 0 249 7
2.42181181907653809 0.652485072612762451 0.456139504909515381 213 255 0 249 7
2.42425632476806641 0.640106558799743652 0.495549857616424561 213 255 0 249 7
2.4196162223815918 0.689601778984069824 0.427541971206665039 213 255 0 249 7
2.41612434387207031 0.719801664352416992 0.40698772668838501 213 255 0 249 7
2.42499399185180664 0.644593119621276855 0.411249995231628418 213 255 0 249 7
2.40517306327819824 0.71274268627166748 0.415756464004516602 213 255 0 249 7
2.48531031608581543 0.541430830955505371 0.393567860126495361 213 255 0 249 7
2.3055567741394043 0.810322046279907227 0.502174615859985352 213 255 0 249 7
2.29337835311889648 0.794165730476379395 0.494022279977798462 213 255 0 249 7
2.35566139221191406 0.754626989364624023 0.421737402677536011 213 255 0 249 7
2.39416718482971191 0.718447327613830566 0.410071372985839844 213 255 0 249 7
2.35805368423461914 0.747494339942932129 0.492272168397903442 213 255 0 249 7
2.37116360664367676 0.738677382469177246 0.457829564809799194 213 255 0 249 7
2.30613565444946289 0.906772077083587646 0.091635875403881073 213 255 0 249 7
2.2858738899230957 0.702960669994354248 0.0644916146993637085 213 255 0 249 7
2.26283073425292969 0.719163358211517334 0.0841974988579750061 213 255 0 249 7
2.30554056167602539 1.07081770896911621 0.165724560618400574 213 255 0 249 7
2.29495739936828613 1.10468137264251709 0.175386026501655579 213 255 0 249 7
2.31479835510253906 1.05315732955932617 0.285937488079071045 213 255 0 249 7
2.34590053558349609 0.636928021907806396 0.0792267918586730957 213 255 0 249 7
2.16788983345031738 1.09797966480255127 0.0881975442171096802 213 255 0 249 7
2.19066309928894043 1.14380025863647461 0.117444410920143127 213 255 0 249 7
2.14771533012390137 1.13556861877441406 0.124665506184101105 213 255 0 249 7
2.17114782333374023 1.14645779132843018 0.119426414370536804 213 255 0 249 7
2.20563220977783203 1.17712068557739258 0.144079551100730896 213 255 0 249 7
2.21460723876953125 1.20486569404602051 0.168190643191337585 213 255 0 249 7
2.32822060585021973 0.787053942680358887 0.0556410029530525208 213 255 0 249 7
2.31685400009155273 0.749954521656036377 0.0584803968667984009 213 255 0 249 7
2.31729602813720703 0.880459606647491455 0.342858225107192993 213 255 0 249 7
2.32626676559448242 0.989093363285064697 0.257962018251419067 213 255 0 249 7
2.32486200332641602 0.983904421329498291 0.312824904918670654 213 255 0 249 7
2.3195033073425293 1.02968740463256836 0.322812497615814209 213 255 0 249 7
2.35642075538635254 0.753433108329772949 0.200301006436347961 213 255 0 249 7
2.18282079696655273 1.17052781581878662 0.135073453187942505 213 255 0 249 7
2.15874981880187988 1.18007075786590576 0.151574015617370605 213 255 0 249 7
2.16496729850769043 1.21768248081207275 0.187384828925132751 213 255 0 249 7
2.19657206535339355 1.22942256927490234 0.187578976154327393 213 255 0 249 7
2.4060368537902832 0.693003177642822266 0.487431555986404419 213 255 0 249 7
2.41496562957763672 0.699383556842803955 0.465894043445587158 213 255 0 249 7
2.40414667129516602 0.691656589508056641 0.550656378269195557 213 255 0 249 7
2.4156639575958252 0.691851794719696045 0.526823043823242188 213 255 0 249 7
2.42106533050537109 0.661454439163208008 0.188809916377067566 213 255 0 249 7
2.42534399032592773 0.666046857833862305 0.228678494691848755 213 255 0 249 7
2.44600701332092285 0.623576462268829346 0.166147947311401367 213 255 0 249 7
2.4037175178527832 0.708253443241119385 0.182551488280296326 213 255 0 249 7
2.41369485855102539 0.70380169153213501 0.20884588360786438 213 255 0 249 7
2.39206099510192871 0.720808863639831543 0.209779232740402222 213 255 0 249 7
2.23013687133789062 1.09979617595672607 0.10977201908826828 213 255 0 249 7
2.29520320892333984 1.06154513359069824 0.139151766896247864 213 255 0 249 7
2.26769471168518066 1.08453464508056641 0.125423744320869446 213 255 0 249 7
2.23061728477478027 1.05115091800689697 0.0774596408009529114 213 255 0 249 7
2.47265982627868652 0.574618935585021973 0.21587662398815155 213 255 0 249 7
2.47520637512207031 0.568984687328338623 0.32743111252784729 213 255 0 249 7
2.45499348640441895 0.607286751270294189 0.330653488636016846 213 255 0 249 7
2.47466373443603516 0.562883377075195312 0.250742703676223755 213 255 0 249 7
2.27919864654541016 0.762529373168945312 0.313780665397644043 213 255 0 249 7
2.26506614685058594 0.745007932186126709 0.277519434690475464 213 255 0 249 7
2.26470518112182617 0.720587551593780518 0.29775768518447876 213 255 0 249 7
2.1973421573638916 1.08755528926849365 0.0803693011403083801 213 255 0 249 7
2.2071528434753418 1.07030189037322998 0.0648577436804771423 213 255 0 249 7
2.24766302108764648 1.12230277061462402 0.133951261639595032 213 255 0 249 7
2.24837446212768555 1.13798832893371582 0.145512178540229797 213 255 0 249 7
2.30894899368286133 0.825984835624694824 0.255301862955093384 213 255 0 249 7
2.28269171714782715 0.800693690776824951 0.282217055559158325 213 255 0 249 7
2.31684613227844238 0.835893154144287109 0.364422768354415894 213 255 0 249 7
2.28726363182067871 0.794871807098388672 0.318713963031768799 213 255 0 249 7
2.30267024040222168 0.830163180828094482 0.315450429916381836 213 255 0 249 7
2.28298449516296387 0.977518618106842041 0.073181547224521637 213 255 0 249 7
2.25538015365600586 1.02004683017730713 0.0644851177930831909 213 255 0 249 7
2.31978845596313477 0.818947196006774902 0.442700415849685669 213 255 0 249 7
2.32772445678710938 0.875069081783294678 0.465220808982849121 213 255 0 249 7
2.39018392562866211 0.707149386405944824 0.173827126622200012 213 255 0 249 7
2.3050084114074707 1.05999994277954102 0.52499997615814209 213 255 0 249 7
2.28962182998657227 1.10509300231933594 0.554999947547912598 213 255 0 249 7
2.30506992340087891 1.08163213729858398 0.467305660247802734 213 255 0 249 7
2.31642889976501465 0.937753260135650635 0.165160581469535828 213 255 0 249 7
2.31832480430603027 0.987043559551239014 0.203929156064987183 213 255 0 249 7
2.31418204307556152 1.01832699775695801 0.168703600764274597 213 255 0 249 7
2.39328384399414062 0.674531161785125732 0.14707435667514801 213 255 0 249 7
2.33065176010131836 0.668421089649200439 0.102392241358757019 213 255 0 249 7
2.38048219680786133 0.596390783786773682 0.0823274180293083191 213 255 0 249 7
2.34467768669128418 0.715960502624511719 0.143632754683494568 213 255 0 249 7
2.35790657997131348 0.727853536605834961 0.1589089035987854 213 255 0 249 7
2.3536074161529541 0.68531346321105957 0.120574839413166046 213 255 0 249 7
2.33209848403930664 0.638334035873413086 0.0662207603454589844 213 255 0 249 7
2.16616320610046387 1.0987093448638916 0.0672152712941169739 213 255 0 249 7
2.39500617980957031 0.699620664119720459 0.505662798881530762 213 255 0 249 7
2.27279448509216309 1.13908660411834717 0.176882833242416382 213 255 0 249 7
2.26602697372436523 1.13721299171447754 0.1599322110414505 213 255 0 249 7
2.42499971389770508 0.653385937213897705 0.329374998807907104 213 255 0 249 7
2.41768646240234375 0.701961100101470947 0.31663823127746582 213 255 0 249 7
2.40484738349914551 0.713605642318725586 0.324692755937576294 213 255 0 249 7
2.41836905479431152 0.72352290153503418 0.342242062091827393 213 255 0 249 7
2.4211585521697998 0.668493866920471191 0.392997264862060547 213 255 0 249 7
2.31805300712585449 0.838638782501220703 0.500440239906311035 213 255 0 249 7
2.25343036651611328 0.680385768413543701 0.541384339332580566 213 255 0 249 7
2.26678657531738281 0.715545117855072021 0.547758102416992188 213 255 0 249 7
2.31306028366088867 0.93575441837310791 0.134496629238128662 213 255 0 249 7
2.26707983016967773 1.01328361034393311 0.0783375948667526245 213 255 0 249 7
2.30248618125915527 0.995139539241790771 0.120273083448410034 213 255 0 249 7
2.37209081649780273 0.594270884990692139 0.0631700307130813599 213 255 0 249 7
2.40572905540466309 0.724376201629638672 0.270486444234848022 213 255 0 249 7
2.41649293899536133 0.73457789421081543 0.277847617864608765 213 255 0 249 7
2.41903090476989746 0.734263718128204346 0.247610211372375488 213 255 0 249 7
2.44037795066833496 0.614018678665161133 0.461608260869979858 213 255 0 249 7
2.46412324905395508 0.581165194511413574 0.437912583351135254 213 255 0 249 7
2.45547342300415039 0.600211262702941895 0.375625014305114746 213 255 0 249 7
2.27373337745666504 0.745393514633178711 0.309052348136901855 213 255 0 249 7
2.27378439903259277 0.749437987804412842 0.339358031749725342 213 255 0 249 7
2.28764748573303223 0.780838847160339355 0.385579496622085571 213 255 0 249 7
2.29849886894226074 0.794693291187286377 0.340330988168716431 213 255 0 249 7
2.3651573657989502 0.739185631275177002 0.535242915153503418 213 255 0 249 7
2.32542252540588379 0.975846529006958008 0.520387172698974609 213 255 0 249 7
2.46385717391967773 0.533175826072692871 0.109409339725971222 213 255 0 249 7
2.31520915031433105 0.893058717250823975 0.165695026516914368 213 255 0 249 7
2.32101941108703613 0.948700129985809326 0.199036210775375366 213 255 0 249 7
2.32524943351745605 0.920598506927490234 0.426504552364349365 213 255 0 249 7
2.31885981559753418 0.847363531589508057 0.233114048838615417 213 255 0 249 7
2.31583285331726074 0.893415868282318115 0.210706040263175964 213 255 0 249 7
2.32645463943481445 0.950568974018096924 0.288874179124832153 213 255 0 249 7
2.32252621650695801 0.923805117607116699 0.246839866042137146 213 255 0 249 7
2.32267332077026367 0.875199615955352783 0.258438348770141602 213 255 0 249 7
2.32886314392089844 0.934051394462585449 0.507034718990325928 213 255 0 249 7
2.3295142650604248 0.906874954700469971 0.548124969005584717 213 255 0 249 7
2.3252873420715332 0.871698439121246338 0.509686768054962158 213 255 0 249 7
2.46883988380432129 0.566353321075439453 0.495022863149642944 213 255 0 249 7
2.42343926429748535 0.632706701755523682 0.533777892589569092 213 255 0 249 7
2.31499981880187988 0.829989135265350342 1.35500001907348633 213 255 0 249 7
2.31902909278869629 0.799181044101715088 1.37915635108947754 213 255 0 249 7
2.33415651321411133 0.733808517456054688 1.16306090354919434 213 255 0 249 7
2.32554244995117188 0.76111525297164917 1.16215145587921143 213 255 0 249 7
2.35278201103210449 0.713430225849151611 1.09485995769500732 213 255 0 249 7
2.34937620162963867 0.733957588672637939 1.20043265819549561 213 255 0 249 7
2.35272741317749023 0.719491481781005859 1.13671958446502686 213 255 0 249 7
2.28208160400390625 0.612936139106750488 0.818053007125854492 213 255 0 249 7
2.3648531436920166 0.725639760494232178 0.583423376083374023 213 255 0 249 7
2.31727743148803711 0.89798438549041748 1.03422141075134277 213 255 0 249 7
2.32266402244567871 0.768923640251159668 1.12166380882263184 213 255 0 249 7
2.32622718811035156 0.855672240257263184 1.08758187294006348 213 255 0 249 7
2.32687807083129883 0.820927977561950684 1.06760311126708984 213 255 0 249 7
2.44563794136047363 0.568875432014465332 0.98750603199005127 213 255 0 249 7
2.41519451141357422 0.632696390151977539 1.15117204189300537 213 255 0 249 7
2.36792850494384766 0.709560632705688477 1.04059743881225586 213 255 0 249 7
2.37728643417358398 0.695290803909301758 1.09933137893676758 213 255 0 249 7
2.18694567680358887 1.06686925888061523 1.40217256546020508 213 255 0 249 7
2.17823934555053711 1.08886063098907471 1.3719717264175415 213 255 0 249 7
2.21400094032287598 1.04685807228088379 1.35662639141082764 213 255 0 249 7
2.16739678382873535 1.0895761251449585 1.43247902393341064 213 255 0 249 7
2.31907439231872559 0.842049360275268555 0.815222859382629395 213 255 0 249 7
2.31726813316345215 0.828003048896789551 0.833317816257476807 213 255 0 249 7
2.42324686050415039 0.586805999279022217 1.40699255466461182 213 255 0 249 7
2.41420459747314453 0.607499957084655762 1.36750006675720215 213 255 0 249 7
2.36007523536682129 0.687914192676544189 1.46549224853515625 213 255 0 249 7
2.36053156852722168 0.678290605545043945 1.48339986801147461 213 255 0 249 7
2.3361358642578125 0.71403425931930542 1.46271657943725586 213 255 0 249 7
2.33381485939025879 0.710122823715209961 1.49079787731170654 213 255 0 249 7
2.27592206001281738 1.07139027118682861 0.825872898101806641 213 255 0 249 7
2.29675006866455078 1.00391697883605957 0.832634091377258301 213 255 0 249 7
2.31473112106323242 0.822506427764892578 1.40738463401794434 213 255 0 249 7
2.47153735160827637 0.556428074836730957 0.827132344245910645 213 255 0 249 7
2.2755734920501709 0.674645006656646729 0.796099603176116943 213 255 0 249 7
2.2702031135559082 0.675557076930999756 0.768453359603881836 213 255 0 249 7
2.27174711227416992 0.699654579162597656 0.773982346057891846 213 255 0 249 7
2.25477743148803711 0.700370073318481445 0.75626671314239502 213 255 0 249 7
2.44600200653076172 0.59738469123840332 0.544000208377838135 213 255 0 249 7
2.48432707786560059 0.52398526668548584 0.588521838188171387 213 255 0 249 7
2.46250009536743164 0.569791913032531738 0.586250007152557373 213 255 0 249 7
2.43499994277954102 0.608335733413696289 0.608749985694885254 213 255 0 249 7
2.4259791374206543 0.630045235157012939 0.573541343212127686 213 255 0 249 7
2.46964120864868164 0.553278923034667969 0.658685684204101562 213 255 0 249 7
2.27474737167358398 0.975648164749145508 1.125 213 255 0 249 7
2.30437016487121582 0.69556504487991333 0.98874974250793457 213 255 0 249 7
2.31485605239868164 0.664169788360595703 1.02077591419219971 213 255 0 249 7
2.30555629730224609 0.658163368701934814 0.97046971321105957 213 255 0 249 7
2.37028932571411133 0.687711417675018311 1.33539986610412598 213 255 0 249 7
2.35535359382629395 0.701888322830200195 1.39688730239868164 213 255 0 249 7
2.36691856384277344 0.691576778888702393 1.37171638011932373 213 255 0 249 7
2.38499999046325684 0.65043342113494873 1.42499995231628418 213 255 0 249 7
2.33426117897033691 0.712490439414978027 1.38762974739074707 213 255 0 249 7
2.36915874481201172 0.679348945617675781 1.41953063011169434 213 255 0 249 7
2.34969353675842285 0.711772263050079346 1.33088994026184082 213 255 0 249 7
2.39953732490539551 0.621116876602172852 1.42346715927124023 213 255 0 249 7
2.29585456848144531 0.930502951145172119 1.08343744277954102 213 255 0 249 7
2.29014229774475098 0.839267730712890625 1.47892868518829346 213 255 0 249 7
2.29452800750732422 0.94556957483291626 1.03624999523162842 213 255 0 249 7
2.31815695762634277 0.880292832851409912 1.11187505722045898 213 255 0 249 7
2.41702151298522949 0.586694657802581787 1.44845163822174072 213 255 0 249 7
2.39472484588623047 0.629036426544189453 1.46418499946594238 213 255 0 249 7
2.4200282096862793 0.545730352401733398 1.48375606536865234 213 255 0 249 7
2.28215980529785156 0.760139226913452148 0.552147924900054932 213 255 0 249 7
2.28555536270141602 0.749473810195922852 0.76633751392364502 213 255 0 249 7
2.27000975608825684 0.721743941307067871 0.745765864849090576 213 255 0 249 7
2.39873671531677246 0.651100814342498779 1.29681682586669922 213 255 0 249 7
2.30332803726196289 0.898961007595062256 1.22367048263549805 213 255 0 249 7
2.28256535530090332 0.936278879642486572 1.22381556034088135 213 255 0 249 7
2.28720808029174805 0.912453174591064453 1.26992630958557129 213 255 0 249 7
2.27503705024719238 0.937943518161773682 1.26968896389007568 213 255 0 249 7
2.43278741836547852 0.609010636806488037 0.644971311092376709 213 255 0 249 7
2.43722343444824219 0.603425979614257812 0.68253791332244873 213 255 0 249 7
2.44095993041992188 0.614956319332122803 0.705436468124389648 213 255 0 249 7
2.32697176933288574 0.894875526428222656 0.58749234676361084 213 255 0 249 7
2.32421493530273438 0.866760134696960449 0.566321253776550293 213 255 0 249 7
2.4718773365020752 0.571903347969055176 0.708424687385559082 213 255 0 249 7
2.29981040954589844 0.962858438491821289 0.937812447547912598 213 255 0 249 7
2.29264926910400391 0.995282173156738281 0.879825353622436523 213 255 0 249 7
2.28907585144042969 0.995000004768371582 0.92499995231628418 213 255 0 249 7
2.22761344909667969 0.990056812763214111 1.4369809627532959 213 255 0 249 7
2.2864227294921875 0.729825913906097412 0.857720136642456055 213 255 0 249 7
2.28587532043457031 0.708659589290618896 0.908529758453369141 213 255 0 249 7
2.29388833045959473 0.698860287666320801 0.933755576610565186 213 255 0 249 7
2.2987520694732666 0.719859182834625244 0.951822221279144287 213 255 0 249 7
2.28752803802490234 0.690656304359436035 0.88728177547454834 213 255 0 249 7
2.29597854614257812 0.657786667346954346 0.926649689674377441 213 255 0 249 7
2.37592482566833496 0.710962057113647461 0.711027443408966064 213 255 0 249 7
2.38393950462341309 0.69667971134185791 0.806639790534973145 213 255 0 249 7
2.43116569519042969 0.598327517509460449 1 213 255 0 249 7
2.44013810157775879 0.578165948390960693 1.11748552322387695 213 255 0 249 7
2.41363763809204102 0.637808144092559814 1.09311604499816895 213 255 0 249 7
2.24831914901733398 0.918089926242828369 1.49429631233215332 213 255 0 249 7
2.27035880088806152 0.895030617713928223 1.47696077823638916 213 255 0 249 7
2.31910467147827148 0.878293454647064209 0.634058654308319092 213 255 0 249 7
2.32688689231872559 0.922869443893432617 0.634999990463256836 213 255 0 249 7
2.32511401176452637 0.945546150207519531 0.759999990463256836 213 255 0 249 7
2.32669949531555176 0.914999961853027344 0.814999997615814209 213 255 0 249 7
2.32571220397949219 0.889502167701721191 0.873749971389770508 213 255 0 249 7
2.32431459426879883 0.935281276702880859 0.839697837829589844 213 255 0 249 7
2.32446765899658203 0.914373219013214111 0.911673367023468018 213 255 0 249 7
2.40508413314819336 0.672749161720275879 0.721497535705566406 213 255 0 249 7
2.40748262405395508 0.65575408935546875 0.792826294898986816 213 255 0 249 7
2.32885289192199707 0.811623454093933105 1.13704192638397217 213 255 0 249 7
2.32690834999084473 0.85026782751083374 1.14025390148162842 213 255 0 249 7
2.3242034912109375 0.824536502361297607 1.17527830600738525 213 255 0 249 7
2.31987357139587402 0.875049889087677002 0.694970905780792236 213 255 0 249 7
2.31926369667053223 0.877395153045654297 0.655493795871734619 213 255 0 249 7
2.32659387588500977 0.887499988079071045 0.959999978542327881 213 255 0 249 7
2.31577587127685547 0.948053121566772461 0.873759984970092773 213 255 0 249 7
2.28418445587158203 0.676147818565368652 0.843404650688171387 213 255 0 249 7
2.29328823089599609 0.648471176624298096 0.870890378952026367 213 255 0 249 7
2.27703118324279785 0.709857821464538574 0.818117082118988037 213 255 0 249 7
2.31377100944519043 0.873014330863952637 1.22407233715057373 213 255 0 249 7
2.2335963249206543 1.04929864406585693 1.26552414894104004 213 255 0 249 7
2.17481350898742676 1.10568332672119141 1.24900996685028076 213 255 0 249 7
2.32494974136352539 0.8910331130027771 1.00165927410125732 213 255 0 249 7
2.3188164234161377 0.843487560749053955 0.560671806335449219 213 255 0 249 7
2.31090116500854492 0.99768441915512085 0.726874947547912598 213 255 0 249 7
2.44942712783813477 0.55391240119934082 1.16249990463256836 213 255 0 249 7
2.31456327438354492 0.837604761123657227 0.756127893924713135 213 255 0 249 7
2.30787444114685059 0.814021885395050049 0.736298799514770508 213 255 0 249 7
2.27092123031616211 1.00062501430511475 1.07249999046325684 213 255 0 249 7
2.28569841384887695 0.98709559440612793 0.964999973773956299 213 255 0 249 7
2.27556586265563965 1.04105913639068604 0.938787341117858887 213 255 0 249 7
2.26012372970581055 0.928949058055877686 1.44714200496673584 213 255 0 249 7
2.19144487380981445 1.08282244205474854 1.33733749389648438 213 255 0 249 7
2.17223095893859863 1.10540592670440674 1.30815970897674561 213 255 0 249 7
2.20811176300048828 1.06464254856109619 1.30905163288116455 213 255 0 249 7
2.19754981994628906 1.08274972438812256 1.27649319171905518 213 255 0 249 7
2.31659030914306641 0.924697041511535645 0.971396863460540771 213 255 0 249 7
2.29530835151672363 0.957274317741394043 0.996312975883483887 213 255 0 249 7
2.33541584014892578 0.74835503101348877 1.2870858907699585 213 255 0 249 7
2.32620644569396973 0.749104440212249756 1.3167722225189209 213 255 0 249 7
2.33554983139038086 0.720740079879760742 1.32103991508483887 213 255 0 249 7
2.14804959297180176 1.10127031803131104 1.47187483310699463 213 255 0 249 7
2.1787421703338623 1.0442807674407959 1.47829484939575195 213 255 0 249 7
2.18424725532531738 1.05268800258636475 1.44969236850738525 213 255 0 249 7
2.32605838775634766 0.966661036014556885 0.698457479476928711 213 255 0 249 7
2.39146065711975098 0.623287558555603027 1.48698651790618896 213 255 0 249 7
2.32437682151794434 0.830868124961853027 1.23018240928649902 213 255 0 249 7
2.33660292625427246 0.783117055892944336 1.22817099094390869 213 255 0 249 7
2.3777623176574707 0.722061097621917725 0.561757564544677734 213 255 0 249 7
2.37791538238525391 0.716537773609161377 0.600165724754333496 213 255 0 249 7
2.30200910568237305 0.870356500148773193 1.34446215629577637 213 255 0 249 7
2.28574109077453613 0.888279616832733154 1.38249373435974121 213 255 0 249 7
2.25880837440490723 0.942499995231628418 1.41999995708465576 213 255 0 249 7
2.26848173141479492 0.934517860412597656 1.38874995708465576 213 255 0 249 7
2.4155280590057373 0.680102407932281494 0.580195963382720947 213 255 0 249 7
2.41471242904663086 0.673303425312042236 0.637262046337127686 213 255 0 249 7
2.30563879013061523 0.838773846626281738 1.41925740242004395 213 255 0 249 7
2.26580691337585449 1.1069951057434082 0.749960780143737793 213 255 0 249 7
2.27873730659484863 1.12021410465240479 0.63666844367980957 213 255 0 249 7
2.2968902587890625 1.04466724395751953 0.663749992847442627 213 255 0 249 7
2.29137158393859863 1.04250001907348633 0.71875 213 255 0 249 7
2.29775166511535645 1.05250000953674316 0.630123913288116455 213 255 0 249 7
2.37753176689147949 0.699785292148590088 0.964317560195922852 213 255 0 249 7
2.36560964584350586 0.705768167972564697 1.00734221935272217 213 255 0 249 7
2.31753087043762207 0.83225637674331665 0.894836187362670898 213 255 0 249 7
2.32578158378601074 0.877981424331665039 0.923140764236450195 213 255 0 249 7
2.31632494926452637 0.815323233604431152 0.912438869476318359 213 255 0 249 7
2.25771665573120117 0.989061474800109863 1.29398810863494873 213 255 0 249 7
2.25921940803527832 0.974893748760223389 1.34300577640533447 213 255 0 249 7
2.24100828170776367 1.01025784015655518 1.34478318691253662 213 255 0 249 7
2.41675591468811035 0.633580565452575684 0.962997615337371826 213 255 0 249 7
2.38752365112304688 0.684247791767120361 0.993129134178161621 213 255 0 249 7
2.31932377815246582 0.770199835300445557 1.05137538909912109 213 255 0 249 7
2.31879782676696777 0.864422976970672607 0.716008007526397705 213 255 0 249 7
2.29389166831970215 0.749540984630584717 0.857195794582366943 213 255 0 249 7
2.28524899482727051 0.747257053852081299 0.815253138542175293 213 255 0 249 7
2.29943370819091797 0.777922451496124268 0.826631546020507812 213 255 0 249 7
2.45470333099365234 0.542781949043273926 1.21500003337860107 213 255 0 249 7
2.1502068042755127 1.1109168529510498 1.43148887157440186 213 255 0 249 7
2.38596582412719727 0.693928003311157227 0.879551172256469727 213 255 0 249 7
2.36875319480895996 0.707486987113952637 0.929231226444244385 213 255 0 249 7
2.15326952934265137 1.11231303215026855 1.37495589256286621 213 255 0 249 7
2.42606449127197266 0.620503664016723633 0.842444002628326416 213 255 0 249 7
2.44791269302368164 0.589523017406463623 0.874256610870361328 213 255 0 249 7
2.3258364200592041 0.795065522193908691 1.29735302925109863 213 255 0 249 7
2.31490135192871094 0.773765981197357178 1.52020895481109619 213 255 0 249 7
2.38085675239562988 0.685114204883575439 1.29657018184661865 213 255 0 249 7
2.39168667793273926 0.652207076549530029 1.34405875205993652 213 255 0 249 7
2.28298020362854004 0.590063929557800293 0.801730692386627197 213 255 0 249 7
2.27612519264221191 0.647389411926269531 0.747921288013458252 213 255 0 249 7
2.32106113433837891 0.832499980926513672 0.930000007152557373 213 255 0 249 7
2.32595014572143555 0.842430830001831055 0.988749980926513672 213 255 0 249 7
2.38097143173217773 0.688812494277954102 1.15866208076477051 213 255 0 249 7
2.32484889030456543 0.722265243530273438 1.13283932209014893 213 255 0 249 7
2.33742403984069824 0.715861856937408447 1.1319957971572876 213 255 0 249 7
2.36617350578308105 0.707477390766143799 1.10381114482879639 213 255 0 249 7
2.32458376884460449 0.685134232044219971 1.08599162101745605 213 255 0 249 7
2.37388896942138672 0.701179385185241699 1.2183983325958252 213 255 0 249 7
2.31541275978088379 0.685369789600372314 1.06828165054321289 213 255 0 249 7
2.31722283363342285 0.720936775207519531 1.10035526752471924 213 255 0 249 7
2.36482095718383789 0.722753286361694336 0.692108690738677979 213 255 0 249 7
2.36658215522766113 0.721910178661346436 0.646430552005767822 213 255 0 249 7
2.47496390342712402 0.538008987903594971 0.917884588241577148 213 255 0 249 7
2.24952006340026855 1.03134453296661377 1.21749997138977051 213 255 0 249 7
2.24795436859130859 1.0550386905670166 1.12629222869873047 213 255 0 249 7
2.25396537780761719 1.05344855785369873 1.06052803993225098 213 255 0 249 7
2.24459075927734375 1.07499992847442627 1.06499993801116943 213 255 0 249 7
2.3120119571685791 0.737652599811553955 1.02966594696044922 213 255 0 249 7
2.26307535171508789 0.981895029544830322 1.23771524429321289 213 255 0 249 7
2.25307631492614746 1.01474261283874512 1.26547408103942871 213 255 0 249 7
2.27739214897155762 0.919959902763366699 1.32522058486938477 213 255 0 249 7
2.30233931541442871 0.880428731441497803 1.3102266788482666 213 255 0 249 7
2.41049075126647949 0.646679341793060303 0.87449270486831665 213 255 0 249 7
2.39953136444091797 0.669656932353973389 1.06372642517089844 213 255 0 249 7
2.31913304328918457 0.852116525173187256 0.784667015075683594 213 255 0 249 7
2.32813620567321777 0.725127339363098145 1.4929347038269043 213 255 0 249 7
2.32444524765014648 0.745913028717041016 1.46151995658874512 213 255 0 249 7
2.31605243682861328 0.804117023944854736 1.46163344383239746 213 255 0 249 7
2.31578397750854492 0.867316126823425293 0.63433605432510376 213 255 0 249 7
2.30178499221801758 0.825206398963928223 0.611968755722045898 213 255 0 249 7
2.31580591201782227 0.854669392108917236 0.597556531429290771 213 255 0 249 7
2.29237008094787598 0.791489720344543457 0.599009156227111816 213 255 0 249 7
2.31473660469055176 1.00407624244689941 0.64374995231628418 213 255 0 249 7
2.28933835029602051 0.938824951648712158 1.1416778564453125 213 255 0 249 7
2.31471896171569824 0.884334444999694824 1.15824484825134277 213 255 0 249 7
2.46428680419921875 0.572522521018981934 0.781876683235168457 213 255 0 249 7
2.4307405948638916 0.611928641796112061 0.763202190399169922 213 255 0 249 7
2.4282526969909668 0.618983566761016846 0.730117559432983398 213 255 0 249 7
2.46515727043151855 0.571299076080322266 0.732606589794158936 213 255 0 249 7
2.36915493011474609 0.718040406703948975 0.779738366603851318 213 255 0 249 7
2.21518111228942871 1.01038813591003418 1.42961215972900391 213 255 0 249 7
2.42242789268493652 0.60322803258895874 1.20807909965515137 213 255 0 249 7
2.42626523971557617 0.597776889801025391 1.22998034954071045 213 255 0 249 7
2.45038866996765137 0.56100839376449585 1.2789764404296875 213 255 0 249 7
2.42324495315551758 0.603767454624176025 1.30414891242980957 213 255 0 249 7
2.31658172607421875 0.847827792167663574 1.27342486381530762 213 255 0 249 7
2.40516996383666992 0.674085795879364014 0.674795269966125488 213 255 0 249 7
2.41735553741455078 0.658957898616790771 0.682378828525543213 213 255 0 249 7
2.2618401050567627 1.05326998233795166 0.998087048530578613 213 255 0 249 7
2.27535700798034668 0.751010775566101074 0.6194877028465271 213 255 0 249 7
2.25476241111755371 0.724118590354919434 0.568577051162719727 213 255 0 249 7
2.27165126800537109 0.742329120635986328 0.581806421279907227 213 255 0 249 7
2.25706195831298828 0.724044561386108398 0.607784867286682129 213 255 0 249 7
2.42727088928222656 0.620663106441497803 0.81044381856918335 213 255 0 249 7
2.26965880393981934 0.728187620639801025 0.707249343395233154 213 255 0 249 7
2.27231526374816895 0.731268703937530518 0.67016071081161499 213 255 0 249 7
2.29080796241760254 0.775147199630737305 0.655633985996246338 213 255 0 249 7
2.32826828956604004 0.806813240051269531 1.21259796619415283 213 255 0 249 7
2.34672951698303223 0.746989250183105469 1.23154640197753906 213 255 0 249 7
2.25702071189880371 1.0167546272277832 1.16937494277954102 213 255 0 249 7
2.21754550933837891 0.974909603595733643 1.47871863842010498 213 255 0 249 7
2.32366704940795898 0.736420571804046631 1.35840654373168945 213 255 0 249 7
2.32461023330688477 0.727173328399658203 1.40420258045196533 213 255 0 249 7
2.45057773590087891 0.559249043464660645 1.31562662124633789 213 255 0 249 7
2.4380791187286377 0.5638999342918396 1.36685347557067871 213 255 0 249 7
2.36913108825683594 0.71164017915725708 0.831740856170654297 213 255 0 249 7
2.35887312889099121 0.720532894134521484 0.884900391101837158 213 255 0 249 7
2.2676537036895752 1.12374627590179443 0.686516463756561279 213 255 0 249 7
2.3949735164642334 0.670229852199554443 1.21326255798339844 213 255 0 249 7
2.34310054779052734 0.730097055435180664 1.28669977188110352 213 255 0 249 7
2.40663003921508789 0.680111467838287354 0.622229635715484619 213 255 0 249 7
2.37740802764892578 0.713590264320373535 0.680877804756164551 213 255 0 249 7
2.26718544960021973 1.0625540018081665 0.920760273933410645 213 255 0 249 7
2.30593514442443848 0.754121959209442139 0.942855894565582275 213 255 0 249 7
2.31750965118408203 0.790134251117706299 0.973124980926513672 213 255 0 249 7
2.30377101898193359 0.782667815685272217 0.875736832618713379 213 255 0 249 7
2.28387665748596191 0.735052287578582764 0.88240736722946167 213 255 0 249 7
2.29690980911254883 0.751050770282745361 0.898507595062255859 213 255 0 249 7
2.39302921295166016 0.67691117525100708 0.930204808712005615 213 255 0 249 7
2.47203159332275391 0.545647382736206055 0.879407048225402832 213 255 0 249 7
2.44751119613647461 0.578836202621459961 0.935267806053161621 213 255 0 249 7
2.27815365791320801 1.06542468070983887 0.790937423706054688 213 255 0 249 7
2.25373387336730957 0.713348329067230225 0.691488087177276611 213 255 0 249 7
2.32509040832519531 0.907207608222961426 0.708523154258728027 213 255 0 249 7
2.3252260684967041 0.889589071273803711 0.792016327381134033 213 255 0 249 7
2.31935310363769531 0.963151395320892334 0.774207770824432373 213 255 0 249 7
2.31988620758056641 0.86070781946182251 0.757833123207092285 213 255 0 249 7
2.32686305046081543 0.945151925086975098 0.715352714061737061 213 255 0 249 7
2.32106304168701172 0.996173262596130371 0.57346874475479126 213 255 0 249 7
2.33046150207519531 0.954543590545654297 0.580437123775482178 213 255 0 249 7
2.32524919509887695 0.976318717002868652 0.616775393486022949 213 255 0 249 7
2.30651187896728516 0.826821565628051758 0.659094095230102539 213 255 0 249 7
2.31593132019042969 0.857381999492645264 0.686486661434173584 213 255 0 249 7
2.29515767097473145 0.783127367496490479 0.707088768482208252 213 255 0 249 7
2.34354209899902344 0.693068385124206543 1.53416728973388672 213 255 0 249 7
2.3395078182220459 0.696472406387329102 1.60673749446868896 213 255 0 249 7
2.33113360404968262 0.716610252857208252 1.55345058441162109 213 255 0 249 7
2.35762119293212891 0.661915004253387451 1.57176649570465088 213 255 0 249 7
2.18550848960876465 0.891133725643157959 1.75867736339569092 213 255 0 249 7
2.18410563468933105 0.946482539176940918 1.75714027881622314 213 255 0 249 7
2.16197443008422852 0.913546264171600342 1.76580417156219482 213 255 0 249 7
2.14199519157409668 1.10635888576507568 1.53971695899963379 213 255 0 249 7
2.19997906684875488 0.988097310066223145 1.63529205322265625 213 255 0 249 7
2.19132018089294434 0.994711518287658691 1.58653795719146729 213 255 0 249 7
2.42676424980163574 0.45268133282661438 1.69473624229431152 213 255 0 249 7
2.1715550422668457 1.03325212001800537 1.75450766086578369 213 255 0 249 7
2.15505862236022949 1.03133666515350342 1.76355552673339844 213 255 0 249 7
2.14523768424987793 1.08574461936950684 1.76514780521392822 213 255 0 249 7
2.27052950859069824 0.834461867809295654 1.72515153884887695 213 255 0 249 7
2.2910912036895752 0.819406032562255859 1.67863810062408447 213 255 0 249 7
2.2521064281463623 0.869758784770965576 1.73423910140991211 213 255 0 249 7
2.29717373847961426 0.779946386814117432 1.72450971603393555 213 255 0 249 7
2.31901001930236816 0.736617684364318848 1.60892057418823242 213 255 0 249 7
2.30551958084106445 0.767276227474212646 1.59613406658172607 213 255 0 249 7
2.34271907806396484 0.700645565986633301 1.64327538013458252 213 255 0 249 7
2.3617393970489502 0.660132706165313721 1.65358805656433105 213 255 0 249 7
2.37055635452270508 0.631311714649200439 1.60746860504150391 213 255 0 249 7
2.17319536209106445 1.04412615299224854 1.50627267360687256 213 255 0 249 7
2.17582058906555176 1.03391706943511963 1.55379247665405273 213 255 0 249 7
2.15197610855102539 1.09199297428131104 1.49836242198944092 213 255 0 249 7
2.1599271297454834 1.07686150074005127 1.58810043334960938 213 255 0 249 7
2.22675561904907227 0.931188464164733887 1.63134849071502686 213 255 0 249 7
2.20582675933837891 0.959132015705108643 1.57993841171264648 213 255 0 249 7
2.16209197044372559 1.07040989398956299 1.7538902759552002 213 255 0 249 7
2.15779638290405273 1.07977914810180664 1.72134613990783691 213 255 0 249 7
2.23518800735473633 0.918534219264984131 1.57499361038208008 213 255 0 249 7
2.27048254013061523 0.866069316864013672 1.55342316627502441 213 255 0 249 7
2.25312972068786621 0.883461058139801025 1.58072960376739502 213 255 0 249 7
2.22162508964538574 0.726338863372802734 1.7543407678604126 213 255 0 249 7
2.38254404067993164 0.600660502910614014 1.62209343910217285 213 255 0 249 7
2.39851808547973633 0.554611802101135254 1.6300511360168457 213 255 0 249 7
2.29538536071777344 0.802581429481506348 1.70145750045776367 213 255 0 249 7
2.30954504013061523 0.707519948482513428 1.73643076419830322 213 255 0 249 7
2.31650733947753906 0.745133638381958008 1.69992101192474365 213 255 0 249 7
2.27712249755859375 0.79414743185043335 1.73616611957550049 213 255 0 249 7
2.25420069694519043 0.788593769073486328 1.7458575963973999 213 255 0 249 7
2.15569710731506348 1.08565092086791992 1.64260530471801758 213 255 0 249 7
2.17678594589233398 1.05541551113128662 1.62037372589111328 213 255 0 249 7
2.33993983268737793 0.622838854789733887 1.73054468631744385 213 255 0 249 7
2.33058857917785645 0.691817820072174072 1.72479593753814697 213 255 0 249 7
2.33775568008422852 0.679811656475067139 1.71547317504882812 213 255 0 249 7
2.3922886848449707 0.578873574733734131 1.58377420902252197 213 255 0 249 7
2.37718558311462402 0.647827684879302979 1.52029085159301758 213 255 0 249 7
2.40347456932067871 0.592597603797912598 1.49576270580291748 213 255 0 249 7
2.20631718635559082 0.978013873100280762 1.51056492328643799 213 255 0 249 7
2.24951028823852539 0.898970305919647217 1.65446078777313232 213 255 0 249 7
2.31434822082519531 0.609879493713378906 1.74645304679870605 213 255 0 249 7
2.28226256370544434 0.594719827175140381 1.74786341190338135 213 255 0 249 7
2.31349086761474609 0.570513010025024414 1.74148654937744141 213 255 0 249 7
2.20525741577148438 0.990374088287353516 1.65735256671905518 213 255 0 249 7
2.18963027000427246 1.03360915184020996 1.64858567714691162 213 255 0 249 7
2.22058892250061035 0.949926912784576416 1.70651531219482422 213 255 0 249 7
2.19544577598571777 1.01918125152587891 1.70046353340148926 213 255 0 249 7
2.18310141563415527 1.04601895809173584 1.69591391086578369 213 255 0 249 7
2.19329977035522461 1.00549995899200439 1.74526166915893555 213 255 0 249 7
2.21342611312866211 0.959297478199005127 1.73421764373779297 213 255 0 249 7
2.1959693431854248 0.787040174007415771 1.75497066974639893 213 255 0 249 7
2.21474838256835938 0.818089187145233154 1.75535678863525391 213 255 0 249 7
2.28232097625732422 0.842457234859466553 1.55166864395141602 213 255 0 249 7
2.28712797164916992 0.81958305835723877 1.6080319881439209 213 255 0 249 7
2.2730259895324707 0.846482336521148682 1.63447058200836182 213 255 0 249 7
2.24821043014526367 0.895925402641296387 1.63053369522094727 213 255 0 249 7
2.26839828491210938 0.859888732433319092 1.69124412536621094 213 255 0 249 7
2.30258369445800781 0.78520810604095459 1.65487086772918701 213 255 0 249 7
2.14247560501098633 1.10255193710327148 1.59145653247833252 213 255 0 249 7
2.14438104629516602 1.09312450885772705 1.66168487071990967 213 255 0 249 7
2.38407993316650391 0.563940584659576416 1.70488989353179932 213 255 0 249 7
2.36749744415283203 0.589536666870117188 1.71496486663818359 213 255 0 249 7
2.35007023811340332 0.659480631351470947 1.69621503353118896 213 255 0 249 7
2.38103437423706055 0.594849228858947754 1.67043685913085938 213 255 0 249 7
2.24330830574035645 0.907961130142211914 1.70926892757415771 213 255 0 249 7
2.22788619995117188 0.939106345176696777 1.66100776195526123 213 255 0 249 7
2.21095609664916992 0.919753432273864746 1.74652564525604248 213 255 0 249 7
2.23145294189453125 0.91246497631072998 1.73536765575408936 213 255 0 249 7
2.2951967716217041 0.816158056259155273 1.51718747615814209 213 255 0 249 7
2.23382329940795898 0.932237505912780762 1.53544163703918457 213 255 0 249 7
2.25606942176818848 0.651936471462249756 1.74736559391021729 213 255 0 249 7
2.29199457168579102 0.657249987125396729 1.75263082981109619 213 255 0 249 7
2.29730391502380371 0.69096827507019043 1.74656713008880615 213 255 0 249 7
2.25769400596618652 0.719224691390991211 1.75112521648406982 213 255 0 249 7
2.24438929557800293 0.691415965557098389 1.74960899353027344 213 255 0 249 7
2.18857216835021973 1.00451970100402832 1.54984569549560547 213 255 0 249 7
2.13273191452026367 0.0633055195212364197 1.878936767578125 213 255 0 249 7
2.07923603057861328 0.336840301752090454 1.89164054393768311 213 255 0 249 7
2.04610705375671387 0.19912680983543396 1.92999362945556641 213 255 0 249 7
2.13374209403991699 0.0725130215287208557 1.85636472702026367 213 255 0 249 7
2.12337064743041992 0.100432306528091431 1.88481724262237549 213 255 0 249 7
2.12645792961120605 0.168073594570159912 1.87027513980865479 213 255 0 249 7
2.02386569976806641 0.4397716224193573 1.9151078462600708 213 255 0 249 7
2.0000464916229248 0.407751291990280151 1.9265979528427124 213 255 0 249 7
2.09727692604064941 0.445952922105789185 1.84631681442260742 213 255 0 249 7
2.09944725036621094 0.390360563993453979 1.85468554496765137 213 255 0 249 7
2.08574748039245605 0.447784990072250366 1.85557138919830322 213 255 0 249 7
1.95718050003051758 0.447258710861206055 1.93402361869812012 213 255 0 249 7
1.97753715515136719 0.541722655296325684 1.91049361228942871 213 255 0 249 7
2.06247401237487793 0.478091120719909668 1.87987220287322998 213 255 0 249 7
