ply
format ascii 1.0
element vertex 607
property float x
property float y
property float z
property uchar red
property uchar green
property uchar blue
property uchar alpha
property uint label
end_header
4.74077129364013672 2.54766750335693359 0.783420205116271973 158 0 142 245 11
5.31658172607421875 1.96861648559570312 0.772560179233551025 158 0 142 245 11
5.2806248664855957 1.97356057167053223 0.774494051933288574 158 0 142 245 11
5.17557859420776367 1.87103831768035889 0.780202507972717285 158 0 142 245 11
5.15144062042236328 2.39687490463256836 0.767995119094848633 158 0 142 245 11
5.15946722030639648 2.45551037788391113 0.76176220178604126 158 0 142 245 11
4.63937950134277344 2.48731279373168945 0.782740294933319092 158 0 142 245 11
5.31113576889038086 2.27547979354858398 0.725015878677368164 158 0 142 245 11
5.2909235954284668 2.32959938049316406 0.728257298469543457 158 0 142 245 11
5.31015825271606445 1.66448569297790527 0.793315649032592773 158 0 142 245 11
4.60173892974853516 1.58951711654663086 0.778679728507995605 158 0 142 245 11
4.5404963493347168 1.58983588218688965 0.782795727252960205 158 0 142 245 11
4.89761590957641602 1.71649360656738281 0.775282084941864014 158 0 142 245 11
4.93223905563354492 1.68518745899200439 0.774222373962402344 158 0 142 245 11
4.58370494842529297 1.95737314224243164 0.774927973747253418 158 0 142 245 11
4.5886540412902832 1.90527307987213135 0.776789188385009766 158 0 142 245 11
4.66366720199584961 1.94098448753356934 0.777632772922515869 158 0 142 245 11
5.41048431396484375 1.79872632026672363 0.766686916351318359 158 0 142 245 11
5.34147262573242188 1.82230901718139648 0.776683211326599121 158 0 142 245 11
5.38499975204467773 1.8049999475479126 0.772008538246154785 158 0 142 245 11
4.73906230926513672 2.13499999046325684 0.775845050811767578 158 0 142 245 11
5.13340425491333008 2.80833792686462402 0.337856262922286987 158 0 142 245 11
5.13162803649902344 2.87690567970275879 0.234396159648895264 158 0 142 245 11
5.20035505294799805 2.60278058052062988 0.291579008102416992 158 0 142 245 11
5.23819112777709961 2.59294438362121582 0.235007032752037048 158 0 142 245 11
5.22891378402709961 2.55530357360839844 0.296702593564987183 158 0 142 245 11
5.21474218368530273 2.56366539001464844 0.299927800893783569 158 0 142 245 11
5.21178293228149414 2.59103226661682129 0.301647782325744629 158 0 142 245 11
5.22557592391967773 2.58376622200012207 0.302574336528778076 158 0 142 245 11
5.20893239974975586 2.57174539566040039 0.272346913814544678 158 0 142 245 11
5.21696186065673828 2.58545875549316406 0.2619209885597229 158 0 142 245 11
5.20231485366821289 2.64587640762329102 0.252391308546066284 158 0 142 245 11
5.23766374588012695 2.54209256172180176 0.272114485502243042 158 0 142 245 11
5.20192670822143555 2.59981727600097656 0.258865177631378174 158 0 142 245 11
5.24792957305908203 2.56416559219360352 0.246810108423233032 158 0 142 245 11
5.23520278930664062 2.5816035270690918 0.251121222972869873 158 0 142 245 11
5.22373771667480469 2.58996200561523438 0.344699651002883911 158 0 142 245 11
5.20441532135009766 2.63392329216003418 0.32626989483833313 158 0 142 245 11
5.21675395965576172 2.6067957878112793 0.321064919233322144 158 0 142 245 11
5.24702119827270508 2.54445457458496094 0.355397254228591919 158 0 142 245 11
5.13029098510742188 2.88560771942138672 0.218605369329452515 158 0 142 245 11
5.11954307556152344 2.90610027313232422 0.224136009812355042 158 0 142 245 11
5.12777853012084961 2.7700340747833252 0.28217586874961853 158 0 142 245 11
5.15520238876342773 2.73875212669372559 0.296466469764709473 158 0 142 245 11
5.14599418640136719 2.76393365859985352 0.300044775009155273 158 0 142 245 11
5.15484619140625 2.77644991874694824 0.258342355489730835 158 0 142 245 11
5.14413213729858398 2.78291058540344238 0.292072504758834839 158 0 142 245 11
5.14433622360229492 2.78456473350524902 0.271265298128128052 158 0 142 245 11
5.16420078277587891 2.75499701499938965 0.257335484027862549 158 0 142 245 11
5.14663553237915039 2.76799511909484863 0.259898513555526733 158 0 142 245 11
5.12906074523925781 2.79352498054504395 0.250018894672393799 158 0 142 245 11
5.15520381927490234 2.77150297164916992 0.30538526177406311 158 0 142 245 11
5.11964893341064453 2.79391670227050781 0.300188779830932617 158 0 142 245 11
5.16677427291870117 2.74900388717651367 0.301555931568145752 158 0 142 245 11
5.15679693222045898 2.74804139137268066 0.25919458270072937 158 0 142 245 11
5.18264055252075195 2.7513434886932373 0.237107127904891968 158 0 142 245 11
5.13431596755981445 2.78510046005249023 0.30487409234046936 158 0 142 245 11
5.19313383102416992 2.71633195877075195 0.23145003616809845 158 0 142 245 11
5.18780279159545898 2.62832808494567871 0.318164408206939697 158 0 142 245 11
5.18218326568603516 2.64255690574645996 0.245105266571044922 158 0 142 245 11
5.16682052612304688 2.67533636093139648 0.239721879363059998 158 0 142 245 11
5.18875932693481445 2.67558908462524414 0.256186395883560181 158 0 142 245 11
5.20394992828369141 2.68813490867614746 0.240318000316619873 158 0 142 245 11
5.17423629760742188 2.72659015655517578 0.255879759788513184 158 0 142 245 11
5.17133045196533203 2.71177792549133301 0.256713807582855225 158 0 142 245 11
5.15213251113891602 2.80805039405822754 0.214958235621452332 158 0 142 245 11
5.16657304763793945 2.79658412933349609 0.23611074686050415 158 0 142 245 11
5.14967536926269531 2.82961368560791016 0.238637626171112061 158 0 142 245 11
5.15414524078369141 2.82492661476135254 0.226242557168006897 158 0 142 245 11
5.103546142578125 2.8387610912322998 0.242327436804771423 158 0 142 245 11
5.11743688583374023 2.80338811874389648 0.264349877834320068 158 0 142 245 11
5.12847042083740234 2.7786710262298584 0.244920343160629272 158 0 142 245 11
5.18389749526977539 2.74433469772338867 0.224963828921318054 158 0 142 245 11
5.15427637100219727 2.73227167129516602 0.245083451271057129 158 0 142 245 11
5.14184761047363281 2.7445991039276123 0.228092506527900696 158 0 142 245 11
5.22030925750732422 2.63408327102661133 0.242344409227371216 158 0 142 245 11
5.17475080490112305 2.70982766151428223 0.369983553886413574 158 0 142 245 11
5.18434715270996094 2.66851162910461426 0.341991215944290161 158 0 142 245 11
5.18338441848754883 2.69217991828918457 0.341028392314910889 158 0 142 245 11
5.1548924446105957 2.70708847045898438 0.334189802408218384 158 0 142 245 11
5.17455625534057617 2.68454504013061523 0.341821283102035522 158 0 142 245 11
5.21761083602905273 2.54388928413391113 0.26415976881980896 158 0 142 245 11
5.21599912643432617 2.56150150299072266 0.244871467351913452 158 0 142 245 11
5.1638641357421875 2.6907956600189209 0.229458838701248169 158 0 142 245 11
5.19437456130981445 2.68386363983154297 0.214445024728775024 158 0 142 245 11
5.10109710693359375 2.90451550483703613 0.205321609973907471 158 0 142 245 11
5.0871882438659668 2.87971067428588867 0.206978276371955872 158 0 142 245 11
5.12297677993774414 2.89360928535461426 0.195470273494720459 158 0 142 245 11
5.10298871994018555 2.88210034370422363 0.174203962087631226 158 0 142 245 11
5.12594223022460938 2.84935688972473145 0.246451079845428467 158 0 142 245 11
5.13159036636352539 2.81462407112121582 0.265572994947433472 158 0 142 245 11
5.18420934677124023 2.62256884574890137 0.345536708831787109 158 0 142 245 11
5.2070002555847168 2.64813137054443359 0.202947601675987244 158 0 142 245 11
5.20952224731445312 2.61836600303649902 0.193771332502365112 158 0 142 245 11
5.2333984375 2.57858991622924805 0.208268865942955017 158 0 142 245 11
5.21643400192260742 2.63780117034912109 0.218190774321556091 158 0 142 245 11
5.13739776611328125 2.74864339828491211 0.345277279615402222 158 0 142 245 11
5.16170787811279297 2.75360941886901855 0.352328985929489136 158 0 142 245 11
5.13399076461791992 2.78073239326477051 0.350107401609420776 158 0 142 245 11
5.17719078063964844 2.73002433776855469 0.319904893636703491 158 0 142 245 11
5.14829444885253906 2.72354578971862793 0.338392883539199829 158 0 142 245 11
5.16265869140625 2.73342704772949219 0.361000001430511475 158 0 142 245 11
5.14574146270751953 2.78955554962158203 0.324198633432388306 158 0 142 245 11
4.71905517578125 2.91997289657592773 0.787912428379058838 158 0 142 245 11
4.76340007781982422 2.88055729866027832 0.788329899311065674 158 0 142 245 11
4.77274084091186523 2.90205812454223633 0.787231564521789551 158 0 142 245 11
4.75222158432006836 2.93330073356628418 0.785330295562744141 158 0 142 245 11
4.75686025619506836 2.96457171440124512 0.782372713088989258 158 0 142 245 11
4.95957183837890625 3.00426483154296875 0.785069525241851807 158 0 142 245 11
4.81750011444091797 2.56749987602233887 0.787971973419189453 158 0 142 245 11
4.78952407836914062 2.70182919502258301 0.782082557678222656 158 0 142 245 11
4.83259057998657227 2.80755138397216797 0.787172436714172363 158 0 142 245 11
4.87496089935302734 2.78419017791748047 0.785504698753356934 158 0 142 245 11
4.88887310028076172 2.86756277084350586 0.788830995559692383 158 0 142 245 11
5.11632156372070312 2.77793693542480469 0.741798996925354004 158 0 142 245 11
5.05284500122070312 2.82781243324279785 0.774964451789855957 158 0 142 245 11
5.09565544128417969 2.89198660850524902 0.750718951225280762 158 0 142 245 11
5.07450008392333984 2.93353390693664551 0.765095412731170654 158 0 142 245 11
5.07750988006591797 2.85566115379333496 0.76521754264831543 158 0 142 245 11
5.05048227310180664 2.96180105209350586 0.774711549282073975 158 0 142 245 11
5.0084376335144043 2.60281229019165039 0.784193575382232666 158 0 142 245 11
4.70625019073486328 2.72375011444091797 0.782598018646240234 158 0 142 245 11
4.56383514404296875 2.59062504768371582 0.7838897705078125 158 0 142 245 11
4.522186279296875 2.86443257331848145 0.788910269737243652 158 0 142 245 11
4.62128114700317383 2.86846923828125 0.787178158760070801 158 0 142 245 11
4.92323589324951172 2.82422614097595215 0.787238538265228271 158 0 142 245 11
4.62372875213623047 2.89316391944885254 0.783477246761322021 158 0 142 245 11
4.6888279914855957 2.85752630233764648 0.787970304489135742 158 0 142 245 11
4.69060754776000977 2.93996119499206543 0.786224126815795898 158 0 142 245 11
4.60046148300170898 2.77261567115783691 0.785695374011993408 158 0 142 245 11
4.70498371124267578 2.79735803604125977 0.787550687789916992 158 0 142 245 11
4.62904977798461914 2.82351088523864746 0.787900447845458984 158 0 142 245 11
5.08274364471435547 3.09972286224365234 0.715296506881713867 158 0 142 245 11
5.0572962760925293 3.05738973617553711 0.753211259841918945 158 0 142 245 11
5.08652114868164062 3.0667719841003418 0.716935694217681885 158 0 142 245 11
5.05635690689086914 3.12235164642333984 0.718887746334075928 158 0 142 245 11
5.03118371963500977 3.08151578903198242 0.751853346824645996 158 0 142 245 11
5.00227069854736328 3.02768158912658691 0.777932226657867432 158 0 142 245 11
4.83737754821777344 2.92127275466918945 0.788605928421020508 158 0 142 245 11
5.08488750457763672 2.78249979019165039 0.764999985694885254 158 0 142 245 11
5.09744977951049805 2.81448245048522949 0.75615990161895752 158 0 142 245 11
5.00984477996826172 2.86250019073486328 0.784332931041717529 158 0 142 245 11
4.8099064826965332 2.63263154029846191 0.786846756935119629 158 0 142 245 11
4.72764301300048828 2.63414859771728516 0.776965677738189697 158 0 142 245 11
4.72036457061767578 2.5635218620300293 0.780303776264190674 158 0 142 245 11
4.779388427734375 2.58706855773925781 0.785453081130981445 158 0 142 245 11
5.13981962203979492 2.58378434181213379 0.750302255153656006 158 0 142 245 11
5.16251707077026367 2.57527041435241699 0.733364760875701904 158 0 142 245 11
5.20982122421264648 2.54112148284912109 0.698146343231201172 158 0 142 245 11
5.21375608444213867 2.59000277519226074 0.650128841400146484 158 0 142 245 11
5.20484113693237305 2.58696079254150391 0.669421195983886719 158 0 142 245 11
5.23486614227294922 2.56792402267456055 0.621097445487976074 158 0 142 245 11
5.24346542358398438 2.55309271812438965 0.59918367862701416 158 0 142 245 11
4.87058496475219727 2.76839590072631836 0.787198960781097412 158 0 142 245 11
4.76453351974487305 2.80419635772705078 0.785798728466033936 158 0 142 245 11
4.5585174560546875 2.9495232105255127 0.763595163822174072 158 0 142 245 11
4.58611726760864258 2.92777085304260254 0.774371087551116943 158 0 142 245 11
4.8524479866027832 2.67530083656311035 0.789083302021026611 158 0 142 245 11
4.62593746185302734 2.64625000953674316 0.78002554178237915 158 0 142 245 11
4.6306004524230957 2.54692435264587402 0.780950665473937988 158 0 142 245 11
4.67739677429199219 2.58632326126098633 0.778038918972015381 158 0 142 245 11
4.70843696594238281 2.97247743606567383 0.776117622852325439 158 0 142 245 11
4.76155900955200195 3.01300787925720215 0.766008257865905762 158 0 142 245 11
4.91635036468505859 3.02460360527038574 0.783047854900360107 158 0 142 245 11
4.91861772537231445 2.97980165481567383 0.787986457347869873 158 0 142 245 11
4.92562484741210938 2.59375 0.788109540939331055 158 0 142 245 11
4.90343713760375977 2.68656253814697266 0.789319634437561035 158 0 142 245 11
5.10048484802246094 2.60871338844299316 0.768935084342956543 158 0 142 245 11
5.12031078338623047 2.54681181907653809 0.76569068431854248 158 0 142 245 11
5.06763410568237305 2.55984139442443848 0.779368042945861816 158 0 142 245 11
5.04467535018920898 2.64807295799255371 0.779757857322692871 158 0 142 245 11
4.95749998092651367 2.67999982833862305 0.788080990314483643 158 0 142 245 11
5.08986282348632812 2.94096827507019043 0.75093311071395874 158 0 142 245 11
5.07640647888183594 2.98443460464477539 0.759272277355194092 158 0 142 245 11
5.05365514755249023 3.01842212677001953 0.763156592845916748 158 0 142 245 11
5.08752775192260742 2.99924087524414062 0.744175255298614502 158 0 142 245 11
5.06984806060791016 3.01982855796813965 0.756394803524017334 158 0 142 245 11
5.07417917251586914 3.07482552528381348 0.740415990352630615 158 0 142 245 11
5.03859138488769531 2.93105721473693848 0.779205739498138428 158 0 142 245 11
4.99749994277954102 2.97749996185302734 0.783196687698364258 158 0 142 245 11
4.96374988555908203 2.84999990463256836 0.787610411643981934 158 0 142 245 11
4.99625015258789062 2.91187477111816406 0.786000728607177734 158 0 142 245 11
4.93553686141967773 2.94615364074707031 0.789732277393341064 158 0 142 245 11
5.10684108734130859 2.73328018188476562 0.754756033420562744 158 0 142 245 11
5.09279060363769531 2.69340729713439941 0.763945400714874268 158 0 142 245 11
5.06807899475097656 2.70031261444091797 0.771902918815612793 158 0 142 245 11
5.19110965728759766 2.58423924446105957 0.686723113059997559 158 0 142 245 11
4.62468814849853516 2.96256542205810547 0.771770298480987549 158 0 142 245 11
4.66247987747192383 2.98230886459350586 0.768155932426452637 158 0 142 245 11
4.8289484977722168 2.73206353187561035 0.782807886600494385 158 0 142 245 11
4.91154336929321289 2.73008608818054199 0.790119171142578125 158 0 142 245 11
4.95392656326293945 2.76408672332763672 0.789498090744018555 158 0 142 245 11
4.57999992370605469 2.61999988555908203 0.781963586807250977 158 0 142 245 11
4.62156248092651367 2.71499991416931152 0.782489418983459473 158 0 142 245 11
5.03732967376708984 3.11435747146606445 0.736763477325439453 158 0 142 245 11
5.13538169860839844 2.64856553077697754 0.737800776958465576 158 0 142 245 11
5.13059282302856445 2.62163448333740234 0.749104082584381104 158 0 142 245 11
5.11994218826293945 2.65980315208435059 0.755482673645019531 158 0 142 245 11
5.13117790222167969 2.69585561752319336 0.739694714546203613 158 0 142 245 11
5.22605371475219727 2.58608031272888184 0.597559094429016113 158 0 142 245 11
5.22314310073852539 2.58166646957397461 0.629985988140106201 158 0 142 245 11
4.81297397613525391 3.00171518325805664 0.775733709335327148 158 0 142 245 11
4.86230897903442383 3.03434348106384277 0.774131298065185547 158 0 142 245 11
4.84376049041748047 2.95330047607421875 0.78659433126449585 158 0 142 245 11
4.59256553649902344 2.97801637649536133 0.75479578971862793 158 0 142 245 11
4.99093723297119141 2.79937481880187988 0.786931216716766357 158 0 142 245 11
5.03156280517578125 2.74874973297119141 0.781064867973327637 158 0 142 245 11
4.99499988555908203 2.73999977111816406 0.786625146865844727 158 0 142 245 11
5.64838171005249023 1.44053685665130615 0.146367087960243225 158 0 142 245 11
5.63754510879516602 1.44038522243499756 0.12406475841999054 158 0 142 245 11
5.63331413269042969 1.48643505573272705 0.303612172603607178 158 0 142 245 11
5.64580249786376953 1.46473908424377441 0.28905603289604187 158 0 142 245 11
5.65725421905517578 1.44390857219696045 0.2856484055519104 158 0 142 245 11
5.64487648010253906 1.45311927795410156 0.264719456434249878 158 0 142 245 11
5.63563728332519531 1.46656668186187744 0.282751500606536865 158 0 142 245 11
5.68120384216308594 1.37699449062347412 0.482212603092193604 158 0 142 245 11
5.64659690856933594 1.38359320163726807 0.494012534618377686 158 0 142 245 11
5.63632392883300781 1.38322818279266357 0.536767423152923584 158 0 142 245 11
5.65346622467041016 1.4065471887588501 0.533724009990692139 158 0 142 245 11
5.64263010025024414 1.40778648853302002 0.484706372022628784 158 0 142 245 11
5.6544032096862793 1.40877878665924072 0.507127702236175537 158 0 142 245 11
5.64527082443237305 1.41828715801239014 0.547234535217285156 158 0 142 245 11
5.65463733673095703 1.41362524032592773 0.482462793588638306 158 0 142 245 11
5.65018987655639648 1.43007850646972656 0.400014191865921021 158 0 142 245 11
5.6372981071472168 1.42838335037231445 0.412494033575057983 158 0 142 245 11
5.64525127410888672 1.41985535621643066 0.43780091404914856 158 0 142 245 11
5.65375661849975586 1.4205392599105835 0.449292749166488647 158 0 142 245 11
5.64224338531494141 1.38582086563110352 0.415674060583114624 158 0 142 245 11
5.64945650100708008 1.37848889827728271 0.459637969732284546 158 0 142 245 11
5.64475250244140625 1.36122524738311768 0.451125264167785645 158 0 142 245 11
5.64532947540283203 1.41779506206512451 0.160478726029396057 158 0 142 245 11
5.65416383743286133 1.43878710269927979 0.172079354524612427 158 0 142 245 11
5.6426854133605957 1.42448461055755615 0.223760083317756653 158 0 142 245 11
5.65569210052490234 1.43378007411956787 0.214566990733146667 158 0 142 245 11
5.64438295364379883 1.43874907493591309 0.203594207763671875 158 0 142 245 11
5.63646125793457031 1.48628914356231689 0.316841959953308105 158 0 142 245 11
5.64254856109619141 1.47249293327331543 0.339878439903259277 158 0 142 245 11
5.62467384338378906 1.50027871131896973 0.369121730327606201 158 0 142 245 11
5.6353611946105957 1.46764063835144043 0.371313035488128662 158 0 142 245 11
5.662261962890625 1.42990672588348389 0.110084190964698792 158 0 142 245 11
5.6746678352355957 1.41981005668640137 0.159846723079681396 158 0 142 245 11
5.67743062973022461 1.41177105903625488 0.335537880659103394 158 0 142 245 11
5.68223810195922852 1.40779125690460205 0.216215282678604126 158 0 142 245 11
5.68079185485839844 1.41366875171661377 0.279967814683914185 158 0 142 245 11
5.64363718032836914 1.44637584686279297 0.371767312288284302 158 0 142 245 11
5.66838645935058594 1.39947831630706787 0.374410510063171387 158 0 142 245 11
5.67138051986694336 1.39813578128814697 0.417801082134246826 158 0 142 245 11
5.63239240646362305 1.41945266723632812 0.0484696179628372192 158 0 142 245 11
5.67871427536010742 1.3715214729309082 0.545811474323272705 158 0 142 245 11
5.63639402389526367 1.43752622604370117 0.27028927206993103 158 0 142 245 11
5.63474369049072266 1.45140957832336426 0.407175779342651367 158 0 142 245 11
5.6444249153137207 1.44306743144989014 0.419267356395721436 158 0 142 245 11
5.61887216567993164 1.43553149700164795 0.628427267074584961 158 0 142 245 11
5.62978124618530273 1.37344753742218018 0.668192028999328613 158 0 142 245 11
5.60963869094848633 1.37373661994934082 0.700644850730895996 158 0 142 245 11
5.60451316833496094 1.35556304454803467 0.716008424758911133 158 0 142 245 11
5.61199140548706055 1.40895390510559082 0.670604169368743896 158 0 142 245 11
5.64585208892822266 1.35867118835449219 0.662331521511077881 158 0 142 245 11
5.6348109245300293 1.40706443786621094 0.558766663074493408 158 0 142 245 11
5.64204645156860352 1.41308903694152832 0.576749265193939209 158 0 142 245 11
5.67530584335327148 1.35949873924255371 0.594771265983581543 158 0 142 245 11
5.64026212692260742 1.38322389125823975 0.627256572246551514 158 0 142 245 11
5.6211695671081543 1.41326355934143066 0.571730852127075195 158 0 142 245 11
5.62760782241821289 1.42551100254058838 0.589358091354370117 158 0 142 245 11
5.61174631118774414 1.48071324825286865 0.597725033760070801 158 0 142 245 11
5.55930328369140625 1.31354200839996338 0.806441545486450195 158 0 142 245 11
5.53419113159179688 1.34615504741668701 0.806678056716918945 158 0 142 245 11
5.60657978057861328 1.45766091346740723 0.654914677143096924 158 0 142 245 11
5.51676273345947266 1.45367038249969482 0.74714970588684082 158 0 142 245 11
5.56676435470581055 1.43299186229705811 0.720636427402496338 158 0 142 245 11
5.54243373870849609 1.50272214412689209 0.724785149097442627 158 0 142 245 11
5.51079130172729492 1.38510429859161377 0.80729377269744873 158 0 142 245 11
5.58545541763305664 1.32513904571533203 0.748444199562072754 158 0 142 245 11
5.5549921989440918 1.33174979686737061 0.791372418403625488 158 0 142 245 11
5.5366978645324707 1.36283242702484131 0.781862080097198486 158 0 142 245 11
5.56966400146484375 1.35576355457305908 0.738337814807891846 158 0 142 245 11
5.51033687591552734 1.40404152870178223 0.79627525806427002 158 0 142 245 11
5.53692007064819336 1.41160786151885986 0.741951465606689453 158 0 142 245 11
5.64256620407104492 1.33232796192169189 0.703903079032897949 158 0 142 245 11
5.57644081115722656 1.46052432060241699 0.699535667896270752 158 0 142 245 11
5.58043527603149414 1.54184246063232422 0.661554276943206787 158 0 142 245 11
5.53868579864501953 1.79281306266784668 0.335913270711898804 158 0 142 245 11
5.56840276718139648 1.6973118782043457 0.341407120227813721 158 0 142 245 11
5.55178976058959961 1.72445046901702881 0.388485133647918701 158 0 142 245 11
5.53224658966064453 1.80808377265930176 0.300618410110473633 158 0 142 245 11
5.62348461151123047 1.5153508186340332 0.321329414844512939 158 0 142 245 11
5.58769607543945312 1.61178147792816162 0.210343018174171448 158 0 142 245 11
5.57632160186767578 1.63108193874359131 0.195058494806289673 158 0 142 245 11
5.57104396820068359 1.67144668102264404 0.222173139452934265 158 0 142 245 11
5.57584810256958008 1.6505810022354126 0.41882246732711792 158 0 142 245 11
5.57421636581420898 1.64054381847381592 0.453162908554077148 158 0 142 245 11
5.56415271759033203 1.62075650691986084 0.41315150260925293 158 0 142 245 11
5.58396291732788086 1.61416220664978027 0.430565118789672852 158 0 142 245 11
5.57548332214355469 1.64906513690948486 0.488654434680938721 158 0 142 245 11
5.58135604858398438 1.59837329387664795 0.414452105760574341 158 0 142 245 11
5.57542276382446289 1.62040507793426514 0.424554735422134399 158 0 142 245 11
5.49721384048461914 1.8934859037399292 0.250255018472671509 158 0 142 245 11
5.51044654846191406 1.85818266868591309 0.342972218990325928 158 0 142 245 11
5.6251373291015625 1.51265573501586914 0.343392729759216309 158 0 142 245 11
5.61425542831420898 1.52803432941436768 0.377710700035095215 158 0 142 245 11
5.60789203643798828 1.56685769557952881 0.346484124660491943 158 0 142 245 11
5.60188484191894531 1.56139969825744629 0.391195386648178101 158 0 142 245 11
5.61527490615844727 1.54236948490142822 0.316622436046600342 158 0 142 245 11
5.56508874893188477 1.68707060813903809 0.379467785358428955 158 0 142 245 11
5.59605884552001953 1.61712217330932617 0.327550739049911499 158 0 142 245 11
5.58247566223144531 1.65543532371520996 0.315954923629760742 158 0 142 245 11
5.59512567520141602 1.59619081020355225 0.369274646043777466 158 0 142 245 11
5.57489776611328125 1.62798190116882324 0.527374982833862305 158 0 142 245 11
5.58530282974243164 1.62058675289154053 0.508966326713562012 158 0 142 245 11
5.58247804641723633 1.59815847873687744 0.486195504665374756 158 0 142 245 11
5.58792400360107422 1.59023714065551758 0.512851297855377197 158 0 142 245 11
5.56969976425170898 1.65460658073425293 0.495309978723526001 158 0 142 245 11
5.57500410079956055 1.60962176322937012 0.539481818675994873 158 0 142 245 11
5.55610084533691406 1.65212786197662354 0.552473485469818115 158 0 142 245 11
5.57484292984008789 1.64493787288665771 0.53303992748260498 158 0 142 245 11
5.56500148773193359 1.6650465726852417 0.575288832187652588 158 0 142 245 11
5.53867769241333008 1.76460170745849609 0.377694368362426758 158 0 142 245 11
5.51847505569458008 1.82060229778289795 0.371893554925918579 158 0 142 245 11
5.52794075012207031 1.78960192203521729 0.392594963312149048 158 0 142 245 11
5.58242273330688477 1.5787355899810791 0.499107152223587036 158 0 142 245 11
5.5898137092590332 1.61901235580444336 0.243414074182510376 158 0 142 245 11
5.58426713943481445 1.63740360736846924 0.232412576675415039 158 0 142 245 11
5.57571983337402344 1.64506137371063232 0.284386217594146729 158 0 142 245 11
5.5852665901184082 1.63849318027496338 0.283762991428375244 158 0 142 245 11
5.51447248458862305 1.83268833160400391 0.209264546632766724 158 0 142 245 11
5.5886387825012207 1.61444759368896484 0.301922082901000977 158 0 142 245 11
5.60565090179443359 1.57065927982330322 0.309823453426361084 158 0 142 245 11
5.60384893417358398 1.58340120315551758 0.315483599901199341 158 0 142 245 11
5.5276026725769043 1.79444169998168945 0.436727970838546753 158 0 142 245 11
5.52186250686645508 1.81750178337097168 0.465028077363967896 158 0 142 245 11
5.51674509048461914 1.82068514823913574 0.410711795091629028 158 0 142 245 11
5.50863885879516602 1.85825240612030029 0.474597513675689697 158 0 142 245 11
5.55754470825195312 1.71460282802581787 0.234452426433563232 158 0 142 245 11
5.54764413833618164 1.7373272180557251 0.215357929468154907 158 0 142 245 11
5.5474095344543457 1.71992111206054688 0.197180852293968201 158 0 142 245 11
5.55719137191772461 1.6899181604385376 0.197636783123016357 158 0 142 245 11
5.56433963775634766 1.68815076351165771 0.428759217262268066 158 0 142 245 11
5.55409908294677734 1.71339726448059082 0.448039859533309937 158 0 142 245 11
5.53652715682983398 1.76540696620941162 0.412153005599975586 158 0 142 245 11
5.57642507553100586 1.67341959476470947 0.283998101949691772 158 0 142 245 11
5.55954456329345703 1.72895550727844238 0.301014959812164307 158 0 142 245 11
5.56290912628173828 1.68382692337036133 0.482043862342834473 158 0 142 245 11
5.56622600555419922 1.67770183086395264 0.471721440553665161 158 0 142 245 11
5.54429960250854492 1.74250543117523193 0.465395718812942505 158 0 142 245 11
5.55597686767578125 1.71099770069122314 0.535016775131225586 158 0 142 245 11
5.54721832275390625 1.7368624210357666 0.543023049831390381 158 0 142 245 11
5.56038427352905273 1.68567383289337158 0.529298901557922363 158 0 142 245 11
5.52579832077026367 1.80198788642883301 0.506294608116149902 158 0 142 245 11
5.53415441513061523 1.77421355247497559 0.502582967281341553 158 0 142 245 11
5.51509618759155273 1.83128893375396729 0.487818509340286255 158 0 142 245 11
5.51478242874145508 1.826529860496521 0.527742683887481689 158 0 142 245 11
5.53366231918334961 1.77307534217834473 0.204353228211402893 158 0 142 245 11
5.52436304092407227 1.80436384677886963 0.207951575517654419 158 0 142 245 11
5.52419376373291016 1.81366848945617676 0.24694390594959259 158 0 142 245 11
5.50525283813476562 1.85826873779296875 0.523453891277313232 158 0 142 245 11
5.50564479827880859 1.84298527240753174 0.503935694694519043 158 0 142 245 11
5.59300327301025391 1.58836662769317627 0.415638357400894165 158 0 142 245 11
5.55032491683959961 1.70539820194244385 0.582603216171264648 158 0 142 245 11
5.538787841796875 1.73340499401092529 0.603028476238250732 158 0 142 245 11
5.55871772766113281 1.67940568923950195 0.579389989376068115 158 0 142 245 11
5.50911140441894531 1.76841771602630615 0.675561249256134033 158 0 142 245 11
5.52650022506713867 1.57547259330749512 0.722536981105804443 158 0 142 245 11
5.56243801116943359 1.54062497615814209 0.690289080142974854 158 0 142 245 11
5.52691841125488281 1.74853897094726562 0.648515284061431885 158 0 142 245 11
5.53806066513061523 1.75429344177246094 0.576149046421051025 158 0 142 245 11
5.52880525588989258 1.77730762958526611 0.584613978862762451 158 0 142 245 11
5.49450206756591797 1.55611562728881836 0.754623889923095703 158 0 142 245 11
5.55519342422485352 1.68270683288574219 0.621027946472167969 158 0 142 245 11
5.57754802703857422 1.62035083770751953 0.602850854396820068 158 0 142 245 11
5.57469844818115234 1.60828351974487305 0.563153088092803955 158 0 142 245 11
5.56776618957519531 1.64796257019042969 0.554050922393798828 158 0 142 245 11
5.57435989379882812 1.63174211978912354 0.551421046257019043 158 0 142 245 11
5.56216573715209961 1.63538885116577148 0.550427913665771484 158 0 142 245 11
5.56278657913208008 1.60781371593475342 0.572324573993682861 158 0 142 245 11
5.50973653793334961 1.83132624626159668 0.59832465648651123 158 0 142 245 11
5.49832010269165039 1.8232569694519043 0.666322588920593262 158 0 142 245 11
5.59094572067260742 1.54385185241699219 0.630136787891387939 158 0 142 245 11
5.55076503753662109 1.61473071575164795 0.681650340557098389 158 0 142 245 11
5.55514717102050781 1.66126024723052979 0.642299413681030273 158 0 142 245 11
5.5917205810546875 1.5640338659286499 0.61358487606048584 158 0 142 245 11
5.60566186904907227 1.52463352680206299 0.594922363758087158 158 0 142 245 11
5.53077554702758789 1.67616093158721924 0.685924053192138672 158 0 142 245 11
5.58363485336303711 1.59916865825653076 0.557232320308685303 158 0 142 245 11
4.3566279411315918 1.01342260837554932 0.798537909984588623 158 0 142 245 11
4.36518764495849609 1.0151059627532959 0.814011216163635254 158 0 142 245 11
4.52349233627319336 1.11540937423706055 0.872037291526794434 158 0 142 245 11
4.48063898086547852 1.0665363073348999 0.867338716983795166 158 0 142 245 11
4.52656269073486328 1.04500007629394531 0.868036508560180664 158 0 142 245 11
4.48431825637817383 1.17589688301086426 0.866258323192596436 158 0 142 245 11
4.4692845344543457 1.13600873947143555 0.863810718059539795 158 0 142 245 11
4.37364912033081055 0.9467124342918396 0.784329235553741455 158 0 142 245 11
4.39170217514038086 1.31147611141204834 0.793980658054351807 158 0 142 245 11
4.47880744934082031 0.907172739505767822 0.837259650230407715 158 0 142 245 11
4.52163124084472656 0.920559823513031006 0.863500714302062988 158 0 142 245 11
4.37259531021118164 1.2847057580947876 0.810012400150299072 158 0 142 245 11
4.33875894546508789 1.18807077407836914 0.814852416515350342 158 0 142 245 11
4.32863950729370117 1.25951433181762695 0.80280911922454834 158 0 142 245 11
4.37726402282714844 1.21340656280517578 0.830395042896270752 158 0 142 245 11
4.3950653076171875 1.26126420497894287 0.830778539180755615 158 0 142 245 11
4.41964340209960938 1.30106353759765625 0.820311605930328369 158 0 142 245 11
4.49492645263671875 1.30629909038543701 0.812008976936340332 158 0 142 245 11
4.46435165405273438 1.28480052947998047 0.833986937999725342 158 0 142 245 11
4.39010286331176758 1.13666808605194092 0.858046948909759521 158 0 142 245 11
4.49377346038818359 0.950340390205383301 0.84666597843170166 158 0 142 245 11
4.42110300064086914 1.1216665506362915 0.866495192050933838 158 0 142 245 11
4.42468738555908203 1.08874058723449707 0.865508198738098145 158 0 142 245 11
4.40560340881347656 1.07188713550567627 0.856317341327667236 158 0 142 245 11
4.39513778686523438 0.879501819610595703 0.778822362422943115 158 0 142 245 11
4.3721003532409668 1.07366478443145752 0.841929912567138672 158 0 142 245 11
4.3554534912109375 1.05899477005004883 0.814177274703979492 158 0 142 245 11
4.35093498229980469 1.05657410621643066 0.786509931087493896 158 0 142 245 11
4.3945622444152832 1.00170779228210449 0.82610321044921875 158 0 142 245 11
4.4461517333984375 1.24817609786987305 0.847328782081604004 158 0 142 245 11
4.50816822052001953 0.990792512893676758 0.860877752304077148 158 0 142 245 11
4.52279758453369141 0.95737004280090332 0.858738303184509277 158 0 142 245 11
4.42803049087524414 1.2020726203918457 0.845652520656585693 158 0 142 245 11
4.44736146926879883 1.16548669338226318 0.859713733196258545 158 0 142 245 11
4.31167793273925781 1.23279523849487305 0.790584325790405273 158 0 142 245 11
4.33758163452148438 1.14782297611236572 0.784291326999664307 158 0 142 245 11
4.4753870964050293 0.929644227027893066 0.833074331283569336 158 0 142 245 11
4.41594839096069336 0.935233235359191895 0.814162611961364746 158 0 142 245 11
4.40065431594848633 0.907312154769897461 0.794142425060272217 158 0 142 245 11
4.43736410140991211 0.900163352489471436 0.821142196655273438 158 0 142 245 11
4.35439348220825195 0.996000826358795166 0.768779456615447998 158 0 142 245 11
4.3709416389465332 0.935616791248321533 0.756718337535858154 158 0 142 245 11
4.34711742401123047 1.10118722915649414 0.784232556819915771 158 0 142 245 11
4.34654474258422852 1.19469618797302246 0.822496414184570312 158 0 142 245 11
4.38343095779418945 1.10773789882659912 0.85588383674621582 158 0 142 245 11
4.36512613296508789 1.18062472343444824 0.834667801856994629 158 0 142 245 11
4.35714387893676758 1.12481153011322021 0.842553794384002686 158 0 142 245 11
4.34704875946044922 1.13531589508056641 0.82387852668762207 158 0 142 245 11
4.71375274658203125 1.01876425743103027 0.854670226573944092 158 0 142 245 11
4.64961338043212891 1.00699782371520996 0.872917532920837402 158 0 142 245 11
4.69834518432617188 1.00539267063140869 0.871609926223754883 158 0 142 245 11
4.56845903396606445 0.94105231761932373 0.872815847396850586 158 0 142 245 11
4.53077554702758789 1.15162467956542969 0.880708813667297363 158 0 142 245 11
4.58233880996704102 1.09385323524475098 0.878796160221099854 158 0 142 245 11
4.60507345199584961 1.09231388568878174 0.882323265075683594 158 0 142 245 11
4.59008264541625977 1.05650210380554199 0.873174548149108887 158 0 142 245 11
4.63029670715332031 1.0602271556854248 0.873342514038085938 158 0 142 245 11
4.67129039764404297 1.03446829319000244 0.863207876682281494 158 0 142 245 11
4.69239234924316406 1.04830968379974365 0.855184614658355713 158 0 142 245 11
4.60552835464477539 1.00734937191009521 0.871414065361022949 158 0 142 245 11
4.56551456451416016 0.969708621501922607 0.866887331008911133 158 0 142 245 11
4.59257364273071289 0.965218842029571533 0.871783733367919922 158 0 142 245 11
4.65606546401977539 1.07369351387023926 0.863663613796234131 158 0 142 245 11
4.75000286102294922 1.02030026912689209 0.851777553558349609 158 0 142 245 11
4.73725128173828125 1.00124013423919678 0.882206439971923828 158 0 142 245 11
4.76392126083374023 1.00715398788452148 0.866949617862701416 158 0 142 245 11
4.73657703399658203 1.00366950035095215 0.864276885986328125 158 0 142 245 11
3.88655757904052734 2.42815017700195312 0.802957594394683838 158 0 142 245 11
3.97942304611206055 2.28129267692565918 0.806252121925354004 158 0 142 245 11
3.95550847053527832 2.36236262321472168 0.80740588903427124 158 0 142 245 11
3.98435211181640625 2.33845400810241699 0.846039295196533203 158 0 142 245 11
4.00913333892822266 1.9368748664855957 0.773788392543792725 158 0 142 245 11
4.04794788360595703 1.94776237010955811 0.794260978698730469 158 0 142 245 11
3.96822094917297363 2.47595596313476562 0.857597112655639648 158 0 142 245 11
3.97898411750793457 2.04060626029968262 0.778160989284515381 158 0 142 245 11
3.87396502494812012 2.40623927116394043 0.79491811990737915 158 0 142 245 11
3.86219000816345215 2.31584477424621582 0.759780645370483398 158 0 142 245 11
3.90188717842102051 2.33568429946899414 0.792492449283599854 158 0 142 245 11
4.06933307647705078 1.98701226711273193 0.79945296049118042 158 0 142 245 11
4.07665395736694336 1.92587196826934814 0.847248435020446777 158 0 142 245 11
4.07437705993652344 2.1462099552154541 0.840879082679748535 158 0 142 245 11
4.05736541748046875 2.1953270435333252 0.839305222034454346 158 0 142 245 11
4.01041460037231445 2.23496127128601074 0.806976556777954102 158 0 142 245 11
4.04453849792480469 2.19922924041748047 0.814052402973175049 158 0 142 245 11
4.0321507453918457 2.17265892028808594 0.805600881576538086 158 0 142 245 11
4.00897693634033203 2.00240993499755859 0.785723984241485596 158 0 142 245 11
3.91918826103210449 2.24134516716003418 0.787210941314697266 158 0 142 245 11
4.02064990997314453 2.47662639617919922 0.857182979583740234 158 0 142 245 11
4.0005345344543457 2.27275991439819336 0.834337592124938965 158 0 142 245 11
4.00258255004882812 2.26622343063354492 0.814994573593139648 158 0 142 245 11
4.11509609222412109 2.03383374214172363 0.801013290882110596 158 0 142 245 11
3.88255143165588379 2.5643315315246582 0.816445112228393555 158 0 142 245 11
3.83769369125366211 2.55527687072753906 0.803077101707458496 158 0 142 245 11
4.01626110076904297 2.06143689155578613 0.791618227958679199 158 0 142 245 11
4.05579137802124023 2.13543581962585449 0.803716063499450684 158 0 142 245 11
4.09039974212646484 2.07018780708312988 0.797922790050506592 158 0 142 245 11
4.01718759536743164 2.14921855926513672 0.800190210342407227 158 0 142 245 11
3.90844559669494629 2.20350265502929688 0.769938170909881592 158 0 142 245 11
4.06383371353149414 1.89814877510070801 0.791567802429199219 158 0 142 245 11
3.82587003707885742 2.44579124450683594 0.767130911350250244 158 0 142 245 11
3.80463314056396484 2.54068875312805176 0.779660403728485107 158 0 142 245 11
4.07395553588867188 2.12989401817321777 0.815252721309661865 158 0 142 245 11
4.11237812042236328 2.06991028785705566 0.806366503238677979 158 0 142 245 11
4.00468778610229492 1.89954471588134766 0.760893285274505615 158 0 142 245 11
3.92788147926330566 2.11475896835327148 0.761030137538909912 158 0 142 245 11
3.97866201400756836 2.13825273513793945 0.79423147439956665 158 0 142 245 11
3.93887019157409668 2.14508700370788574 0.777721107006072998 158 0 142 245 11
3.95720887184143066 2.0454094409942627 0.764242053031921387 158 0 142 245 11
3.96308517456054688 2.12200832366943359 0.785848021507263184 158 0 142 245 11
3.88780641555786133 2.23249244689941406 0.756633400917053223 158 0 142 245 11
3.88721513748168945 2.26961588859558105 0.770078361034393311 158 0 142 245 11
3.88036632537841797 2.32248759269714355 0.778381407260894775 158 0 142 245 11
3.84462738037109375 2.39167070388793945 0.770725667476654053 158 0 142 245 11
3.85217618942260742 2.42046189308166504 0.784152805805206299 158 0 142 245 11
3.98622488975524902 2.31481027603149414 0.834608733654022217 158 0 142 245 11
3.93766570091247559 2.24826717376708984 0.79590374231338501 158 0 142 245 11
3.93877935409545898 2.31421852111816406 0.801462650299072266 158 0 142 245 11
4.0780787467956543 1.96020972728729248 0.809103608131408691 158 0 142 245 11
4.10358524322509766 1.99950814247131348 0.804711461067199707 158 0 142 245 11
4.0994267463684082 1.96214497089385986 0.843681633472442627 158 0 142 245 11
4.04384803771972656 2.03777742385864258 0.793755233287811279 158 0 142 245 11
3.94902443885803223 2.43590044975280762 0.828209102153778076 158 0 142 245 11
3.93344283103942871 2.47383213043212891 0.823754608631134033 158 0 142 245 11
3.91625761985778809 2.48739981651306152 0.81655651330947876 158 0 142 245 11
3.96890997886657715 2.36371397972106934 0.814069688320159912 158 0 142 245 11
3.93577170372009277 2.4318687915802002 0.813327908515930176 158 0 142 245 11
3.96391916275024414 2.43372416496276855 0.848241925239562988 158 0 142 245 11
3.70196104049682617 2.67385435104370117 0.527576923370361328 158 0 142 245 11
3.83904242515563965 2.61341023445129395 0.806561946868896484 158 0 142 245 11
3.81060552597045898 2.58729696273803711 0.793073594570159912 158 0 142 245 11
3.76299715042114258 2.63956141471862793 0.751846730709075928 158 0 142 245 11
3.78287339210510254 2.62828326225280762 0.776859402656555176 158 0 142 245 11
3.73572874069213867 2.64991617202758789 0.684165656566619873 158 0 142 245 11
3.72076511383056641 2.66499996185302734 0.639999985694885254 158 0 142 245 11
3.78819060325622559 2.54604363441467285 0.762003660202026367 158 0 142 245 11
3.70610880851745605 2.65943717956542969 0.570838868618011475 158 0 142 245 11
3.70822787284851074 2.65166163444519043 0.598118245601654053 158 0 142 245 11
3.74328255653381348 2.68052291870117188 0.714146733283996582 158 0 142 245 11
3.76099085807800293 2.66991472244262695 0.755837857723236084 158 0 142 245 11
3.80711865425109863 2.64979052543640137 0.791607856750488281 158 0 142 245 11
3.78439712524414062 2.67921304702758789 0.774719953536987305 158 0 142 245 11
3.99975252151489258 2.3511812686920166 0.85700148344039917 158 0 142 245 11
4.28132867813110352 2.48517251014709473 0.796266794204711914 158 0 142 245 11
4.24769878387451172 2.50524520874023438 0.812746822834014893 158 0 142 245 11
4.20021200180053711 2.41995024681091309 0.833662509918212891 158 0 142 245 11
4.08485269546508789 2.43497776985168457 0.85696786642074585 158 0 142 245 11
4.09921836853027344 2.45853614807128906 0.848379254341125488 158 0 142 245 11
4.16152095794677734 2.46514081954956055 0.845618665218353271 158 0 142 245 11
4.10721349716186523 2.397613525390625 0.856337130069732666 158 0 142 245 11
4.12673854827880859 2.31298089027404785 0.847243010997772217 158 0 142 245 11
4.13659143447875977 2.36769223213195801 0.84837418794631958 158 0 142 245 11
4.14548110961914062 1.98848104476928711 0.876678705215454102 158 0 142 245 11
4.18966102600097656 2.1444694995880127 0.888181447982788086 158 0 142 245 11
4.19038724899291992 2.1038663387298584 0.884936392307281494 158 0 142 245 11
4.26242399215698242 2.38534188270568848 0.793203234672546387 158 0 142 245 11
4.27415037155151367 2.44548249244689941 0.798825442790985107 158 0 142 245 11
4.25326967239379883 2.42107510566711426 0.815098762512207031 158 0 142 245 11
4.02300453186035156 2.24092769622802734 0.840201616287231445 158 0 142 245 11
4.00599527359008789 2.28532743453979492 0.845597624778747559 158 0 142 245 11
4.04181098937988281 2.33055448532104492 0.856508493423461914 158 0 142 245 11
4.10826683044433594 2.0265960693359375 0.865294456481933594 158 0 142 245 11
4.14276409149169922 2.0462791919708252 0.867217481136322021 158 0 142 245 11
4.20587682723999023 2.51625347137451172 0.825362026691436768 158 0 142 245 11
4.17517566680908203 2.5163109302520752 0.837780892848968506 158 0 142 245 11
4.21336746215820312 2.44822549819946289 0.834669411182403564 158 0 142 245 11
4.30119132995605469 2.25392532348632812 0.847204387187957764 158 0 142 245 11
4.27673244476318359 2.29897904396057129 0.815222859382629395 158 0 142 245 11
4.26292276382446289 2.30321311950683594 0.795780777931213379 158 0 142 245 11
4.24855184555053711 2.32299661636352539 0.794223308563232422 158 0 142 245 11
4.14762353897094727 2.17132759094238281 0.865253925323486328 158 0 142 245 11
4.09434032440185547 2.19648170471191406 0.85772627592086792 158 0 142 245 11
4.07087182998657227 2.22510981559753418 0.848526239395141602 158 0 142 245 11
4.05319690704345703 2.46139025688171387 0.85705333948135376 158 0 142 245 11
4.16118478775024414 2.22769522666931152 0.852036893367767334 158 0 142 245 11
4.29084539413452148 2.2326195240020752 0.855395853519439697 158 0 142 245 11
4.08669519424438477 2.49273157119750977 0.851483345031738281 158 0 142 245 11
4.12020969390869141 2.5095362663269043 0.845794141292572021 158 0 142 245 11
4.13516807556152344 2.53798198699951172 0.841824650764465332 158 0 142 245 11
4.18681764602661133 2.25004243850708008 0.850549221038818359 158 0 142 245 11
4.22288703918457031 2.24863839149475098 0.852599442005157471 158 0 142 245 11
4.17929983139038086 2.30504488945007324 0.82894289493560791 158 0 142 245 11
4.21935939788818359 2.30775737762451172 0.820664942264556885 158 0 142 245 11
4.25164508819580078 2.27430343627929688 0.842249453067779541 158 0 142 245 11
4.09886789321899414 2.110748291015625 0.841311991214752197 158 0 142 245 11
4.10864973068237305 2.07132124900817871 0.855530500411987305 158 0 142 245 11
4.08179855346679688 2.17154073715209961 0.861012041568756104 158 0 142 245 11
4.15416431427001953 2.11815929412841797 0.874182522296905518 158 0 142 245 11
4.12899303436279297 2.09349226951599121 0.865584075450897217 158 0 142 245 11
4.11290931701660156 2.11230826377868652 0.85954362154006958 158 0 142 245 11
4.15092992782592773 2.40446710586547852 0.8468741774559021 158 0 142 245 11
4.21523380279541016 2.36268901824951172 0.826889753341674805 158 0 142 245 11
4.21106243133544922 2.32969784736633301 0.820607841014862061 158 0 142 245 11
4.23461771011352539 2.35395216941833496 0.814537763595581055 158 0 142 245 11
4.05177688598632812 2.40060687065124512 0.863294363021850586 158 0 142 245 11
3.99649620056152344 2.44768333435058594 0.859012007713317871 158 0 142 245 11
4.04175376892089844 2.28366208076477051 0.849306702613830566 158 0 142 245 11
4.12410879135131836 2.24611735343933105 0.844852983951568604 158 0 142 245 11
4.14747047424316406 2.2831881046295166 0.836145699024200439 158 0 142 245 11
4.11181402206420898 2.28236722946166992 0.846103787422180176 158 0 142 245 11
4.15277242660522461 2.31879901885986328 0.833460688591003418 158 0 142 245 11
4.197235107421875 2.06198692321777344 0.879186332225799561 158 0 142 245 11
3.98335671424865723 2.39468264579772949 0.853817224502563477 158 0 142 245 11
4.19252681732177734 2.56108689308166504 0.816929221153259277 158 0 142 245 11
4.14237737655639648 2.56562566757202148 0.834467887878417969 158 0 142 245 11
3.99065947532653809 2.5679161548614502 0.839914858341217041 158 0 142 245 11
4.00610589981079102 2.59267807006835938 0.862841308116912842 158 0 142 245 11
4.04079771041870117 2.61169004440307617 0.840848803520202637 158 0 142 245 11
4.02742147445678711 2.58531737327575684 0.86984175443649292 158 0 142 245 11
4.08719348907470703 2.60967183113098145 0.825788319110870361 158 0 142 245 11
4.11818075180053711 2.59280014038085938 0.825486063957214355 158 0 142 245 11
4.22662830352783203 2.19066786766052246 0.906499266624450684 158 0 142 245 11
4.17080354690551758 2.17005753517150879 0.872959136962890625 158 0 142 245 11
4.34368133544921875 2.13244819641113281 0.978122889995574951 158 0 142 245 11
4.4638066291809082 2.05937671661376953 0.964755713939666748 158 0 142 245 11
4.44941377639770508 2.25169825553894043 0.846413850784301758 158 0 142 245 11
4.48838186264038086 2.26344132423400879 0.830935537815093994 158 0 142 245 11
4.51736545562744141 2.26215171813964844 0.850785136222839355 158 0 142 245 11
4.53195524215698242 2.26224637031555176 0.826761007308959961 158 0 142 245 11
4.48798751831054688 2.25618338584899902 0.877382993698120117 158 0 142 245 11
4.51106548309326172 2.26813268661499023 0.80900418758392334 158 0 142 245 11
4.22832870483398438 2.15466117858886719 0.916459321975708008 158 0 142 245 11
4.24223423004150391 2.07582521438598633 0.949135005474090576 158 0 142 245 11
4.24832963943481445 2.1100165843963623 0.952242851257324219 158 0 142 245 11
4.50429058074951172 2.28110146522521973 0.794061541557312012 158 0 142 245 11
