ply
format ascii 1.0
element vertex 621
property float x
property float y
property float z
property uchar red
property uchar green
property uchar blue
property uchar alpha
property uint label
end_header
7.41282844543457031 4.1204686164855957 1.07250964641571045 213 255 0 249 7
7.42711782455444336 4.08907699584960938 1.12443232536315918 213 255 0 249 7
7.42549467086791992 4.09194326400756836 1.07627296447753906 213 255 0 249 7
7.39849328994750977 4.1755528450012207 1.03757095336914062 213 255 0 249 7
7.33363580703735352 4.35338687896728516 0.933639705181121826 213 255 0 249 7
7.32822227478027344 4.37042331695556641 0.973239004611968994 213 255 0 249 7
7.34816884994506836 4.30937528610229492 0.938952863216400146 213 255 0 249 7
7.33619880676269531 4.32598972320556641 0.887384653091430664 213 255 0 249 7
7.4083256721496582 4.11701536178588867 0.978140413761138916 213 255 0 249 7
7.41416072845458984 4.09447383880615234 1.03237748146057129 213 255 0 249 7
7.41884946823120117 4.08882665634155273 0.996722400188446045 213 255 0 249 7
7.41592025756835938 4.08828401565551758 0.9404144287109375 213 255 0 249 7
7.40391683578491211 4.15815162658691406 1.00134646892547607 213 255 0 249 7
7.27109670639038086 4.46644258499145508 0.659696578979492188 213 255 0 249 7
7.25564765930175781 4.50935268402099609 0.699723362922668457 213 255 0 249 7
7.24869060516357422 4.51727437973022461 0.652072727680206299 213 255 0 249 7
7.24342155456542969 4.54270029067993164 0.734522879123687744 213 255 0 249 7
7.29718303680419922 4.38543796539306641 0.554335892200469971 213 255 0 249 7
7.37351226806640625 4.2649998664855957 1.11249995231628418 213 255 0 249 7
7.37534284591674805 4.26719141006469727 1.15588963031768799 213 255 0 249 7
7.3251042366027832 4.39569091796875 1.12448012828826904 213 255 0 249 7
7.30315923690795898 4.43462276458740234 1.15613353252410889 213 255 0 249 7
7.29065990447998047 4.47314596176147461 1.16926443576812744 213 255 0 249 7
7.30769777297973633 4.43303966522216797 1.1857529878616333 213 255 0 249 7
7.45287084579467773 4.05617809295654297 1.31328558921813965 213 255 0 249 7
7.32936763763427734 4.31306266784667969 0.805897235870361328 213 255 0 249 7
7.33957338333129883 4.28257608413696289 0.847806990146636963 213 255 0 249 7
7.28773069381713867 4.42924118041992188 0.783356368541717529 213 255 0 249 7
7.29816389083862305 4.35933828353881836 0.556818723678588867 213 255 0 249 7
7.29761552810668945 4.36836719512939453 0.594657957553863525 213 255 0 249 7
7.29529762268066406 4.39075708389282227 0.587330400943756104 213 255 0 249 7
7.33334970474243164 4.39596223831176758 1.24930655956268311 213 255 0 249 7
7.38833332061767578 4.14752197265625 0.752822339534759521 213 255 0 249 7
7.41719293594360352 4.12302494049072266 1.21158671379089355 213 255 0 249 7
7.42350673675537109 4.1270298957824707 1.26367092132568359 213 255 0 249 7
7.41837978363037109 4.16252517700195312 1.26231396198272705 213 255 0 249 7
7.34639310836791992 4.36660909652709961 1.35559391975402832 213 255 0 249 7
7.35256004333496094 4.36134481430053711 1.41841483116149902 213 255 0 249 7
7.40970039367675781 4.08765792846679688 0.872912943363189697 213 255 0 249 7
7.395843505859375 4.12063503265380859 0.884654402732849121 213 255 0 249 7
7.40615320205688477 4.12045431137084961 0.946283459663391113 213 255 0 249 7
7.40203523635864258 4.14843416213989258 0.947169840335845947 213 255 0 249 7
7.43742561340332031 4.08770465850830078 1.25709521770477295 213 255 0 249 7
7.28833675384521484 4.48199367523193359 1.09930706024169922 213 255 0 249 7
7.2765812873840332 4.49984550476074219 1.06596517562866211 213 255 0 249 7
7.29206562042236328 4.49213933944702148 1.35630464553833008 213 255 0 249 7
7.33266115188598633 4.4076385498046875 1.40454733371734619 213 255 0 249 7
7.31557655334472656 4.43597316741943359 1.42144870758056641 213 255 0 249 7
7.32720232009887695 4.41650009155273438 1.44554460048675537 213 255 0 249 7
7.31481456756591797 4.43236637115478516 1.36583900451660156 213 255 0 249 7
7.37790679931640625 4.27500009536743164 1.49500000476837158 213 255 0 249 7
7.37136745452880859 4.30742359161376953 1.51199674606323242 213 255 0 249 7
7.37000179290771484 4.2853245735168457 1.44420647621154785 213 255 0 249 7
7.38051605224609375 4.25872802734375 1.45264136791229248 213 255 0 249 7
7.36088466644287109 4.31244468688964844 1.45533561706542969 213 255 0 249 7
7.27702856063842773 4.52889347076416016 1.22972679138183594 213 255 0 249 7
7.30051136016845703 4.45937633514404297 1.24966585636138916 213 255 0 249 7
7.28992176055908203 4.49298191070556641 1.28668928146362305 213 255 0 249 7
7.27221870422363281 4.54249763488769531 1.273781418800354 213 255 0 249 7
7.29724884033203125 4.47578620910644531 1.22229647636413574 213 255 0 249 7
7.321258544921875 4.4425358772277832 1.48354268074035645 213 255 0 249 7
7.2847285270690918 4.53646755218505859 1.45971715450286865 213 255 0 249 7
7.35635805130004883 4.2904047966003418 0.992516577243804932 213 255 0 249 7
7.35131311416625977 4.29629373550415039 0.962089598178863525 213 255 0 249 7
7.35386991500854492 4.2852320671081543 0.895717620849609375 213 255 0 249 7
7.36218595504760742 4.16056585311889648 0.552507996559143066 213 255 0 249 7
7.31464099884033203 4.37191677093505859 0.85847318172454834 213 255 0 249 7
7.31148576736450195 4.35829877853393555 0.797938942909240723 213 255 0 249 7
7.32970333099365234 4.32755422592163086 0.862885117530822754 213 255 0 249 7
7.42348146438598633 4.06603860855102539 0.869797110557556152 213 255 0 249 7
7.42629098892211914 4.05486440658569336 0.869890928268432617 213 255 0 249 7
7.42365598678588867 4.05702304840087891 0.763557255268096924 213 255 0 249 7
7.28036022186279297 4.43700218200683594 0.731419384479522705 213 255 0 249 7
7.37883090972900391 4.22721958160400391 1.02966785430908203 213 255 0 249 7
7.36499929428100586 4.27359962463378906 1.01816070079803467 213 255 0 249 7
7.36240482330322266 4.29114246368408203 1.04870879650115967 213 255 0 249 7
7.3776392936706543 4.23998022079467773 0.993696451187133789 213 255 0 249 7
7.31759977340698242 4.45663833618164062 1.45966219902038574 213 255 0 249 7
7.35041666030883789 4.35784196853637695 1.3169703483581543 213 255 0 249 7
7.36536979675292969 4.3177332878112793 1.31054437160491943 213 255 0 249 7
7.34748458862304688 4.34975910186767578 1.26415753364562988 213 255 0 249 7
7.38506174087524414 4.08950901031494141 0.658459067344665527 213 255 0 249 7
7.4038090705871582 4.08235025405883789 0.743488192558288574 213 255 0 249 7
7.37331771850585938 4.13200664520263672 0.660710453987121582 213 255 0 249 7
7.41006135940551758 4.06977558135986328 0.691472470760345459 213 255 0 249 7
7.38477706909179688 4.09612464904785156 0.716229796409606934 213 255 0 249 7
7.38542079925537109 4.25895118713378906 1.40979206562042236 213 255 0 249 7
7.37713432312011719 4.28958845138549805 1.33880770206451416 213 255 0 249 7
7.3662714958190918 4.31604766845703125 1.37115156650543213 213 255 0 249 7
7.36753034591674805 4.30808448791503906 1.41750490665435791 213 255 0 249 7
7.43253421783447266 4.09102296829223633 1.3709108829498291 213 255 0 249 7
7.40802431106567383 4.20174789428710938 1.31525647640228271 213 255 0 249 7
7.39666271209716797 4.22554588317871094 1.37313747406005859 213 255 0 249 7
7.41520833969116211 4.15948772430419922 1.39662313461303711 213 255 0 249 7
7.38702917098999023 4.23405027389526367 1.44501674175262451 213 255 0 249 7
7.41505002975463867 4.13143682479858398 1.13666820526123047 213 255 0 249 7
7.43012142181396484 4.0888676643371582 1.20700478553771973 213 255 0 249 7
7.41104984283447266 4.15735197067260742 1.16646254062652588 213 255 0 249 7
7.38496971130371094 4.14555644989013672 0.790228009223937988 213 255 0 249 7
7.38787031173706055 4.14868545532226562 0.860218822956085205 213 255 0 249 7
7.37074613571166992 4.19985771179199219 0.85378575325012207 213 255 0 249 7
7.35321331024169922 4.23665237426757812 0.851022303104400635 213 255 0 249 7
7.45510196685791016 4.05925178527832031 1.44273257255554199 213 255 0 249 7
7.43993949890136719 4.08511209487915039 1.47953581809997559 213 255 0 249 7
7.26712894439697266 4.46397161483764648 0.618361592292785645 213 255 0 249 7
7.28154420852661133 4.41704130172729492 0.56043696403503418 213 255 0 249 7
7.34299516677856445 4.35992050170898438 1.20173263549804688 213 255 0 249 7
7.43093633651733398 4.09904575347900391 1.33041393756866455 213 255 0 249 7
7.41933441162109375 4.12757539749145508 1.3077247142791748 213 255 0 249 7
7.37462425231933594 4.22839784622192383 0.952008306980133057 213 255 0 249 7
7.36214780807495117 4.25889158248901367 0.91888880729675293 213 255 0 249 7
7.35722208023071289 4.25067138671875 0.876758158206939697 213 255 0 249 7
7.39892148971557617 4.20439291000366211 1.45555472373962402 213 255 0 249 7
7.4009861946105957 4.21124029159545898 1.51211702823638916 213 255 0 249 7
7.4149017333984375 4.16274070739746094 1.47600734233856201 213 255 0 249 7
7.39320611953735352 4.15104246139526367 0.903831124305725098 213 255 0 249 7
7.36855268478393555 4.2314453125 0.893423140048980713 213 255 0 249 7
7.38689470291137695 4.19066238403320312 0.929563343524932861 213 255 0 249 7
7.29577922821044922 4.42267322540283203 0.889595091342926025 213 255 0 249 7
7.28108501434326172 4.45964193344116211 0.86984860897064209 213 255 0 249 7
7.32106876373291016 4.38257217407226562 0.891800761222839355 213 255 0 249 7
7.2966771125793457 4.42536640167236328 0.931746244430541992 213 255 0 249 7
7.43631267547607422 4.05916404724121094 0.931928873062133789 213 255 0 249 7
7.28711080551147461 4.49084997177124023 1.12922990322113037 213 255 0 249 7
7.29555511474609375 4.49230432510375977 1.39480507373809814 213 255 0 249 7
7.30267572402954102 4.47398042678833008 1.4285893440246582 213 255 0 249 7
7.27676296234130859 4.52651119232177734 1.33711254596710205 213 255 0 249 7
7.28137731552124023 4.53525161743164062 1.4349595308303833 213 255 0 249 7
7.38970565795898438 4.20186281204223633 1.08693325519561768 213 255 0 249 7
7.40599203109741211 4.16099929809570312 1.07816100120544434 213 255 0 249 7
7.30419731140136719 4.42575597763061523 1.10508179664611816 213 255 0 249 7
7.29952573776245117 4.43525791168212891 1.0586627721786499 213 255 0 249 7
7.38665866851806641 4.20284080505371094 0.979252874851226807 213 255 0 249 7
7.30130767822265625 4.42974853515625 0.987120330333709717 213 255 0 249 7
7.31936550140380859 4.39987659454345703 0.984749972820281982 213 255 0 249 7
7.29128360748291016 4.45202732086181641 1.01875340938568115 213 255 0 249 7
7.28324413299560547 4.45991325378417969 0.933120906352996826 213 255 0 249 7
7.32248830795288086 4.38857936859130859 1.02055180072784424 213 255 0 249 7
7.32447481155395508 4.38452339172363281 0.955099642276763916 213 255 0 249 7
7.34821414947509766 4.34848546981811523 1.1468198299407959 213 255 0 249 7
7.33246612548828125 4.38892269134521484 1.19362008571624756 213 255 0 249 7
7.43915224075317383 4.06351470947265625 1.04691433906555176 213 255 0 249 7
7.44621086120605469 4.05442237854003906 1.12217044830322266 213 255 0 249 7
7.44411897659301758 4.06335639953613281 1.10895955562591553 213 255 0 249 7
7.43730735778808594 4.06496000289916992 1.00358259677886963 213 255 0 249 7
7.44021511077880859 4.05471229553222656 1.03864669799804688 213 255 0 249 7
7.45566606521606445 4.06041049957275391 1.27894103527069092 213 255 0 249 7
7.44946002960205078 4.05540275573730469 1.18992877006530762 213 255 0 249 7
7.44799423217773438 4.06503009796142578 1.1820904016494751 213 255 0 249 7
7.4545893669128418 4.05968952178955078 1.22838211059570312 213 255 0 249 7
7.44901323318481445 4.05460691452026367 1.37285768985748291 213 255 0 249 7
7.44771575927734375 4.0658717155456543 1.35465693473815918 213 255 0 249 7
7.44850921630859375 4.0655055046081543 1.40281248092651367 213 255 0 249 7
7.4100189208984375 4.16074895858764648 1.11530447006225586 213 255 0 249 7
7.39763355255126953 4.19078207015991211 1.11940789222717285 213 255 0 249 7
7.39552021026611328 4.06328487396240234 0.646740317344665527 213 255 0 249 7
7.36976480484008789 4.17410087585449219 0.6284371018409729 213 255 0 249 7
7.36243915557861328 4.17535161972045898 0.588039517402648926 213 255 0 249 7
7.43426227569580078 4.08772468566894531 1.29758536815643311 213 255 0 249 7
7.26558494567871094 4.53991317749023438 1.07417511940002441 213 255 0 249 7
7.26629447937011719 4.53658771514892578 1.00473427772521973 213 255 0 249 7
7.34251165390014648 4.37677478790283203 1.44768071174621582 213 255 0 249 7
7.34551095962524414 4.36505508422851562 1.46575438976287842 213 255 0 249 7
7.3343205451965332 4.4026031494140625 1.4835362434387207 213 255 0 249 7
7.3928523063659668 4.13546371459960938 0.83009791374206543 213 255 0 249 7
7.41181230545043945 4.08270883560180664 0.827909886837005615 213 255 0 249 7
7.27659749984741211 4.48281049728393555 0.858766436576843262 213 255 0 249 7
7.26132678985595703 4.51753377914428711 0.819714725017547607 213 255 0 249 7
7.30289220809936523 4.46332883834838867 1.29883885383605957 213 255 0 249 7
7.33355998992919922 4.39017009735107422 1.28487741947174072 213 255 0 249 7
7.31205081939697266 4.4315028190612793 1.2716820240020752 213 255 0 249 7
7.30818462371826172 4.44412422180175781 1.32848513126373291 213 255 0 249 7
7.33844470977783203 4.38886165618896484 1.33901298046112061 213 255 0 249 7
7.4150242805480957 4.15464925765991211 1.22932112216949463 213 255 0 249 7
7.40169525146484375 4.21044731140136719 1.25942838191986084 213 255 0 249 7
7.39576482772827148 4.21539449691772461 1.22107076644897461 213 255 0 249 7
7.36339569091796875 4.28883504867553711 1.08379077911376953 213 255 0 249 7
7.43674564361572266 4.05856752395629883 0.97404015064239502 213 255 0 249 7
7.43314695358276367 4.09232664108276367 1.41887235641479492 213 255 0 249 7
7.42169904708862305 4.12920951843261719 1.47399377822875977 213 255 0 249 7
7.43493318557739258 4.1129150390625 1.5170750617980957 213 255 0 249 7
7.29992580413818359 4.39500904083251953 0.616195440292358398 213 255 0 249 7
7.28252410888671875 4.426422119140625 0.625385403633117676 213 255 0 249 7
7.36117172241210938 4.31816005706787109 1.27081835269927979 213 255 0 249 7
7.3863530158996582 4.25684881210327148 1.27213954925537109 213 255 0 249 7
7.39354515075683594 4.24345159530639648 1.32102513313293457 213 255 0 249 7
7.39231729507446289 4.23704957962036133 1.2946171760559082 213 255 0 249 7
7.26999378204345703 4.55937480926513672 1.30650043487548828 213 255 0 249 7
7.34457778930664062 4.33473443984985352 1.06461334228515625 213 255 0 249 7
7.3246612548828125 4.39087486267089844 1.05229675769805908 213 255 0 249 7
7.33899402618408203 4.3590083122253418 1.1111299991607666 213 255 0 249 7
7.32988500595092773 4.37000370025634766 1.08149552345275879 213 255 0 249 7
7.34120655059814453 4.33641576766967773 1.02878248691558838 213 255 0 249 7
7.35479927062988281 4.32297706604003906 1.13646841049194336 213 255 0 249 7
7.27482128143310547 4.45974254608154297 0.71220695972442627 213 255 0 249 7
7.34153413772583008 4.33942031860351562 0.995197713375091553 213 255 0 249 7
7.41883230209350586 4.16413640975952148 1.34311890602111816 213 255 0 249 7
7.32961702346801758 4.4055933952331543 1.36609780788421631 213 255 0 249 7
7.26450872421264648 4.49078273773193359 0.747126162052154541 213 255 0 249 7
7.25662040710449219 4.52663135528564453 0.767542183399200439 213 255 0 249 7
7.24165630340576172 4.5792536735534668 0.766620934009552002 213 255 0 249 7
7.26717376708984375 4.52075433731079102 0.940041005611419678 213 255 0 249 7
7.25970935821533203 4.5249485969543457 0.878622114658355713 213 255 0 249 7
7.41213369369506836 4.17457962036132812 1.60264909267425537 213 255 0 249 7
7.40668964385986328 4.20242214202880859 1.63117730617523193 213 255 0 249 7
7.4238286018371582 4.16737461090087891 1.67437434196472168 213 255 0 249 7
7.32821798324584961 4.44083690643310547 1.94365835189819336 213 255 0 249 7
7.3722529411315918 4.29927682876586914 1.58689820766448975 213 255 0 249 7
7.38963699340820312 4.25049018859863281 1.52852118015289307 213 255 0 249 7
7.38143730163574219 4.2746124267578125 1.60723006725311279 213 255 0 249 7
7.38033485412597656 4.27182674407958984 1.55140602588653564 213 255 0 249 7
7.37485504150390625 4.31596136093139648 1.73453974723815918 213 255 0 249 7
7.39006948471069336 4.26593875885009766 1.70271694660186768 213 255 0 249 7
7.29931163787841797 4.50875329971313477 1.64822995662689209 213 255 0 249 7
7.28927087783813477 4.53690385818481445 1.61908400058746338 213 255 0 249 7
7.30701923370361328 4.48921632766723633 1.69065630435943604 213 255 0 249 7
7.46388673782348633 4.06961154937744141 2.1031641960144043 213 255 0 249 7
7.48164653778076172 4.03918170928955078 2.11970901489257812 213 255 0 249 7
7.31077671051025391 4.48714685440063477 1.81009376049041748 213 255 0 249 7
7.29994106292724609 4.51251888275146484 1.74992763996124268 213 255 0 249 7
7.28281116485595703 4.56491613388061523 1.78625845909118652 213 255 0 249 7
7.29895734786987305 4.51401138305664062 1.83849477767944336 213 255 0 249 7
7.39847755432128906 4.26971721649169922 2.09419417381286621 213 255 0 249 7
7.40513277053833008 4.2462773323059082 2.06014800071716309 213 255 0 249 7
7.39230442047119141 4.27813720703125 2.12555694580078125 213 255 0 249 7
7.40802145004272461 4.23390674591064453 2.12478804588317871 213 255 0 249 7
7.29453468322753906 4.55825471878051758 1.92421090602874756 213 255 0 249 7
7.31808185577392578 4.47344636917114258 1.89933288097381592 213 255 0 249 7
7.43770551681518555 4.1678462028503418 2.04312992095947266 213 255 0 249 7
7.4619441032409668 4.02876043319702148 2.24583697319030762 213 255 0 249 7
7.44616603851318359 4.02149200439453125 2.2884364128112793 213 255 0 249 7
7.4430084228515625 4.07525920867919922 2.27438616752624512 213 255 0 249 7
7.32038021087646484 4.47730159759521484 2.02435708045959473 213 255 0 249 7
7.30005168914794922 4.52861547470092773 2.00892543792724609 213 255 0 249 7
7.29974365234375 4.52042055130004883 1.98137283325195312 213 255 0 249 7
7.31115388870239258 4.48510646820068359 1.97345292568206787 213 255 0 249 7
7.41022968292236328 4.21951103210449219 2.15257477760314941 213 255 0 249 7
7.42527866363525391 4.1955113410949707 2.11391496658325195 213 255 0 249 7
7.34784221649169922 4.39300823211669922 1.73549699783325195 213 255 0 249 7
7.32428789138793945 4.4400486946105957 1.69337296485900879 213 255 0 249 7
7.42516517639160156 4.12928485870361328 1.70481014251708984 213 255 0 249 7
7.42850971221923828 4.11725282669067383 1.66194140911102295 213 255 0 249 7
7.43787908554077148 4.08942985534667969 1.70948421955108643 213 255 0 249 7
7.44351434707641602 4.08603858947753906 1.73469674587249756 213 255 0 249 7
7.45413923263549805 4.05881643295288086 1.6041947603225708 213 255 0 249 7
7.45627164840698242 4.05991029739379883 1.650962233543396 213 255 0 249 7
7.43426036834716797 4.15376663208007812 1.83972084522247314 213 255 0 249 7
7.38802194595336914 4.23730802536010742 1.58571231365203857 213 255 0 249 7
7.39207029342651367 4.25605249404907227 1.63713479042053223 213 255 0 249 7
7.47117519378662109 4.02209091186523438 2.15000128746032715 213 255 0 249 7
7.47939872741699219 4.03630447387695312 2.20663261413574219 213 255 0 249 7
7.47698068618774414 4.02547216415405273 2.2048182487487793 213 255 0 249 7
7.45982789993286133 4.07305574417114258 2.21272945404052734 213 255 0 249 7
7.45857429504394531 4.06756591796875 2.23323583602905273 213 255 0 249 7
7.38939237594604492 4.29713582992553711 1.83225500583648682 213 255 0 249 7
7.41239356994628906 4.21440839767456055 1.84732210636138916 213 255 0 249 7
7.43320703506469727 4.16987848281860352 2.18550848960876465 213 255 0 249 7
7.40817928314208984 4.21528196334838867 2.22351980209350586 213 255 0 249 7
7.3796539306640625 4.32205009460449219 1.91341471672058105 213 255 0 249 7
7.36978960037231445 4.34587287902832031 1.98277962207794189 213 255 0 249 7
7.38461828231811523 4.31672048568725586 1.94959938526153564 213 255 0 249 7
7.35589313507080078 4.37373828887939453 1.94584321975708008 213 255 0 249 7
7.36184930801391602 4.37349843978881836 1.89905095100402832 213 255 0 249 7
7.42334127426147461 4.14226531982421875 1.56464207172393799 213 255 0 249 7
7.42591428756713867 4.14513540267944336 1.52262258529663086 213 255 0 249 7
7.43367910385131836 4.09969758987426758 1.5563737154006958 213 255 0 249 7
7.44255590438842773 4.13982343673706055 2.07698607444763184 213 255 0 249 7
7.45165634155273438 4.10346174240112305 2.08006668090820312 213 255 0 249 7
7.45631980895996094 4.09250640869140625 2.12532258033752441 213 255 0 249 7
7.44675254821777344 4.11906051635742188 2.14954304695129395 213 255 0 249 7
7.44565868377685547 4.13534116744995117 2.12006068229675293 213 255 0 249 7
7.35386514663696289 4.35321140289306641 1.51492083072662354 213 255 0 249 7
7.36078977584838867 4.33059263229370117 1.57919859886169434 213 255 0 249 7
7.34954595565795898 4.4035944938659668 2.07371664047241211 213 255 0 249 7
7.33191537857055664 4.45553827285766602 2.06145548820495605 213 255 0 249 7
7.3306422233581543 4.42091274261474609 1.61524605751037598 213 255 0 249 7
7.32071638107299805 4.44404077529907227 1.63705193996429443 213 255 0 249 7
7.32135725021362305 4.44364833831787109 1.5896904468536377 213 255 0 249 7
7.34566497802734375 4.39807319641113281 1.6532512903213501 213 255 0 249 7
7.41180038452148438 4.20648670196533203 2.24829649925231934 213 255 0 249 7
7.41196632385253906 4.17698907852172852 2.30234956741333008 213 255 0 249 7
7.42603635787963867 4.11317014694213867 1.61066257953643799 213 255 0 249 7
7.4197998046875 4.14808559417724609 1.62374019622802734 213 255 0 249 7
7.4333038330078125 4.09765911102294922 1.6296687126159668 213 255 0 249 7
7.39357709884643555 4.27989482879638672 1.86996066570281982 213 255 0 249 7
7.3697052001953125 4.34300088882446289 1.83473539352416992 213 255 0 249 7
7.30057764053344727 4.52166223526000977 1.93097507953643799 213 255 0 249 7
7.31355667114257812 4.47398567199707031 1.93649113178253174 213 255 0 249 7
7.44341039657592773 4.07683610916137695 1.76362287998199463 213 255 0 249 7
7.44030475616455078 4.10428333282470703 1.84589076042175293 213 255 0 249 7
7.43367147445678711 4.17064094543457031 1.88832175731658936 213 255 0 249 7
7.43842601776123047 4.1104736328125 1.89875710010528564 213 255 0 249 7
7.33558988571166992 4.43080043792724609 1.91476607322692871 213 255 0 249 7
7.34938764572143555 4.39522886276245117 1.87363719940185547 213 255 0 249 7
7.34940862655639648 4.37937402725219727 1.83274602890014648 213 255 0 249 7
7.32741212844848633 4.43513965606689453 1.86922061443328857 213 255 0 249 7
7.31291389465332031 4.47546052932739258 1.87344586849212646 213 255 0 249 7
7.46557378768920898 4.03973770141601562 1.87288165092468262 213 255 0 249 7
7.46659946441650391 4.05559587478637695 1.90777468681335449 213 255 0 249 7
7.46095991134643555 4.06505632400512695 1.86802351474761963 213 255 0 249 7
7.47476911544799805 4.04650020599365234 1.9753495454788208 213 255 0 249 7
7.4862675666809082 4.03924036026000977 2.0745842456817627 213 255 0 249 7
7.3626093864440918 4.38037729263305664 2.00379633903503418 213 255 0 249 7
7.36809873580932617 4.36224842071533203 2.0349276065826416 213 255 0 249 7
7.38283157348632812 4.31434106826782227 2.06139326095581055 213 255 0 249 7
7.36875009536743164 4.33358383178710938 1.76675045490264893 213 255 0 249 7
7.35705423355102539 4.36840152740478516 1.79698216915130615 213 255 0 249 7
7.46913623809814453 4.07330513000488281 2.05191922187805176 213 255 0 249 7
7.45925235748291016 4.09545660018920898 2.04679512977600098 213 255 0 249 7
7.44902181625366211 4.13778781890869141 2.03579950332641602 213 255 0 249 7
7.45236063003540039 4.07996368408203125 1.97108626365661621 213 255 0 249 7
7.36718988418579102 4.32489347457885742 1.62906420230865479 213 255 0 249 7
7.3432774543762207 4.38819742202758789 1.52104437351226807 213 255 0 249 7
7.3548126220703125 4.34547042846679688 1.54191648960113525 213 255 0 249 7
7.34190988540649414 4.3872218132019043 1.57053196430206299 213 255 0 249 7
7.4523773193359375 4.05804920196533203 1.47365045547485352 213 255 0 249 7
7.45712852478027344 4.06827735900878906 1.52743172645568848 213 255 0 249 7
7.40259313583374023 4.20041275024414062 1.54222607612609863 213 255 0 249 7
7.42387866973876953 4.21057415008544922 2.01969146728515625 213 255 0 249 7
7.43052434921264648 4.17133760452270508 2.07358598709106445 213 255 0 249 7
7.42658424377441406 4.19775390625 2.05498909950256348 213 255 0 249 7
7.29888105392456055 4.50082015991210938 1.56704223155975342 213 255 0 249 7
7.28504610061645508 4.52919435501098633 1.55422484874725342 213 255 0 249 7
7.43193292617797852 4.1093597412109375 2.29084944725036621 213 255 0 249 7
7.41274785995483398 4.14432334899902344 2.31604099273681641 213 255 0 249 7
7.42488384246826172 4.1539306640625 2.27304935455322266 213 255 0 249 7
7.43067312240600586 4.13687372207641602 1.79726815223693848 213 255 0 249 7
7.45824289321899414 4.04379844665527344 2.33414387702941895 213 255 0 249 7
7.500946044921875 4.04624366760253906 2.3698880672454834 213 255 0 249 7
7.46471929550170898 4.0245208740234375 2.35139727592468262 213 255 0 249 7
7.39802217483520508 4.25652837753295898 1.7569727897644043 213 255 0 249 7
7.38143348693847656 4.29692268371582031 1.77862954139709473 213 255 0 249 7
7.39736843109130859 4.25563573837280273 1.79889297485351562 213 255 0 249 7
7.33242702484130859 4.42470073699951172 1.78814280033111572 213 255 0 249 7
7.32272529602050781 4.44683074951171875 1.82770109176635742 213 255 0 249 7
7.32091522216796875 4.45368814468383789 1.73435091972351074 213 255 0 249 7
7.36038446426391602 4.36002445220947266 1.637947678565979 213 255 0 249 7
7.33304405212402344 4.44803428649902344 2.10042405128479004 213 255 0 249 7
7.304534912109375 4.52962398529052734 2.0782315731048584 213 255 0 249 7
7.30850982666015625 4.52331256866455078 2.11855220794677734 213 255 0 249 7
7.32425975799560547 4.48198556900024414 2.12604427337646484 213 255 0 249 7
7.31717395782470703 4.50957965850830078 2.24090766906738281 213 255 0 249 7
7.43056631088256836 4.16557788848876953 2.2248225212097168 213 255 0 249 7
7.46277093887329102 4.07800579071044922 2.15342426300048828 213 255 0 249 7
7.44457817077636719 4.12663888931274414 2.2187502384185791 213 255 0 249 7
7.4607081413269043 4.05962896347045898 1.55039310455322266 213 255 0 249 7
7.41170692443847656 4.22406148910522461 1.88852059841156006 213 255 0 249 7
7.42992067337036133 4.17031192779541016 1.94039642810821533 213 255 0 249 7
7.4544219970703125 4.05920028686523438 1.71230995655059814 213 255 0 249 7
7.44516372680664062 4.06833696365356445 2.30458474159240723 213 255 0 249 7
7.43564271926879883 4.1464848518371582 2.24615621566772461 213 255 0 249 7
7.31014156341552734 4.47589206695556641 1.72065830230712891 213 255 0 249 7
7.29644536972045898 4.51654338836669922 1.6919865608215332 213 255 0 249 7
7.40474176406860352 4.26153564453125 2.03437280654907227 213 255 0 249 7
7.39902162551879883 4.27584266662597656 2.00455498695373535 213 255 0 249 7
7.3946385383605957 4.24469661712646484 1.67063117027282715 213 255 0 249 7
7.42207813262939453 4.1642918586730957 1.71343660354614258 213 255 0 249 7
7.41468334197998047 4.19591951370239258 1.70594358444213867 213 255 0 249 7
7.40601539611816406 4.22301387786865234 1.73162496089935303 213 255 0 249 7
7.40824460983276367 4.23964548110961914 1.9200972318649292 213 255 0 249 7
7.4218907356262207 4.20137119293212891 1.97239518165588379 213 255 0 249 7
7.34326410293579102 4.41302728652954102 1.99869370460510254 213 255 0 249 7
7.33938121795654297 4.41402959823608398 2.03877997398376465 213 255 0 249 7
7.32373189926147461 4.46018457412719727 1.99066555500030518 213 255 0 249 7
7.34130764007568359 4.42236995697021484 2.13928818702697754 213 255 0 249 7
7.32997703552246094 4.46992969512939453 2.17179274559020996 213 255 0 249 7
7.33183145523071289 4.46043872833251953 2.20987701416015625 213 255 0 249 7
7.34924173355102539 4.4068603515625 2.22545433044433594 213 255 0 249 7
7.39874076843261719 4.19649219512939453 2.3206026554107666 213 255 0 249 7
7.43984270095825195 4.10113000869750977 1.9162062406539917 213 255 0 249 7
7.44926929473876953 4.08951854705810547 1.93841314315795898 213 255 0 249 7
7.44286537170410156 4.13391876220703125 1.97351336479187012 213 255 0 249 7
7.36486148834228516 4.34450435638427734 1.68979096412658691 213 255 0 249 7
7.37047672271728516 4.3145604133605957 1.65626168251037598 213 255 0 249 7
7.41764211654663086 4.20172119140625 1.75765073299407959 213 255 0 249 7
7.42719745635986328 4.16320514678955078 1.75934708118438721 213 255 0 249 7
7.4131312370300293 4.21348762512207031 1.79995167255401611 213 255 0 249 7
7.3574671745300293 4.39095449447631836 2.15962815284729004 213 255 0 249 7
7.37438011169433594 4.33397865295410156 2.17767882347106934 213 255 0 249 7
7.38681459426879883 4.28417348861694336 2.1621701717376709 213 255 0 249 7
7.39537143707275391 4.24294090270996094 2.23772192001342773 213 255 0 249 7
7.38642311096191406 4.28508138656616211 2.22413110733032227 213 255 0 249 7
7.40618658065795898 4.23818445205688477 2.17974519729614258 213 255 0 249 7
7.33597278594970703 4.41463518142700195 1.51103007793426514 213 255 0 249 7
7.31417179107666016 4.45515108108520508 1.55195820331573486 213 255 0 249 7
7.30901288986206055 4.48741292953491211 1.52138185501098633 213 255 0 249 7
7.34012079238891602 4.39164638519287109 1.54311394691467285 213 255 0 249 7
7.33338832855224609 4.46246337890625 2.25467085838317871 213 255 0 249 7
7.45761919021606445 4.05025100708007812 1.7711106538772583 213 255 0 249 7
7.46047115325927734 4.05198955535888672 1.83398914337158203 213 255 0 249 7
7.47312211990356445 4.05192327499389648 1.94550240039825439 213 255 0 249 7
7.363983154296875 4.36435461044311523 2.20834589004516602 213 255 0 249 7
7.39304208755493164 4.26701116561889648 1.95209527015686035 213 255 0 249 7
7.38729667663574219 4.30136728286743164 1.92604279518127441 213 255 0 249 7
7.39111518859863281 4.28831338882446289 1.98184049129486084 213 255 0 249 7
7.32148170471191406 4.50246286392211914 2.21263790130615234 213 255 0 249 7
7.37759590148925781 4.33138275146484375 2.14140868186950684 213 255 0 249 7
7.36906194686889648 4.36733722686767578 2.08176898956298828 213 255 0 249 7
7.36051416397094727 4.38300943374633789 2.1192777156829834 213 255 0 249 7
7.20388984680175781 4.60331630706787109 0.205687776207923889 213 255 0 249 7
7.11461925506591797 4.85653829574584961 0.193782687187194824 213 255 0 249 7
7.11588954925537109 4.86311674118041992 0.352695822715759277 213 255 0 249 7
7.16524219512939453 4.75958013534545898 0.413266390562057495 213 255 0 249 7
7.17324924468994141 4.74574422836303711 0.509813129901885986 213 255 0 249 7
7.13314199447631836 4.8400425910949707 0.508722960948944092 213 255 0 249 7
7.13436365127563477 4.83143186569213867 0.542094111442565918 213 255 0 249 7
7.12594938278198242 4.86367130279541016 0.521757543087005615 213 255 0 249 7
7.23219203948974609 4.57499980926513672 0.497500002384185791 213 255 0 249 7
7.12324190139770508 4.83472967147827148 0.275637447834014893 213 255 0 249 7
7.12435007095336914 4.83560323715209961 0.330467939376831055 213 255 0 249 7
7.13974428176879883 4.80634260177612305 0.282283604145050049 213 255 0 249 7
7.11607217788696289 4.86813020706176758 0.296126246452331543 213 255 0 249 7
7.17109966278076172 4.69412803649902344 0.217090129852294922 213 255 0 249 7
7.18262434005737305 4.65492630004882812 0.210548087954521179 213 255 0 249 7
7.22601795196533203 4.56639575958251953 0.276356279850006104 213 255 0 249 7
7.20151710510253906 4.62614011764526367 0.244815230369567871 213 255 0 249 7
7.20693778991699219 4.61496734619140625 0.291092365980148315 213 255 0 249 7
7.12667942047119141 4.82973861694335938 0.358636021614074707 213 255 0 249 7
7.12056159973144531 4.87272787094116211 0.480028808116912842 213 255 0 249 7
7.12058830261230469 4.87065935134887695 0.405997395515441895 213 255 0 249 7
7.12665271759033203 4.84499979019165039 0.432500004768371582 213 255 0 249 7
7.14257144927978516 4.80831432342529297 0.418342441320419312 213 255 0 249 7
7.18761301040649414 4.68967628479003906 0.395313560962677002 213 255 0 249 7
7.11337852478027344 4.86681127548217773 0.263828784227371216 213 255 0 249 7
7.16375589370727539 4.76448869705200195 0.470754504203796387 213 255 0 249 7
7.14953088760375977 4.80868005752563477 0.505092382431030273 213 255 0 249 7
7.23009300231933594 4.58075904846191406 0.456586301326751709 213 255 0 249 7
7.20276880264282227 4.65495014190673828 0.516875028610229492 213 255 0 249 7
7.20858383178710938 4.64624977111816406 0.548750042915344238 213 255 0 249 7
7.12434196472167969 4.88474941253662109 0.520476341247558594 213 255 0 249 7
7.19913053512573242 4.65677499771118164 0.421998322010040283 213 255 0 249 7
7.19645977020263672 4.64750003814697266 0.29249998927116394 213 255 0 249 7
7.18008852005004883 4.68669748306274414 0.246742963790893555 213 255 0 249 7
7.15557050704956055 4.73566007614135742 0.224272578954696655 213 255 0 249 7
7.12692689895629883 4.81188011169433594 0.216621145606040955 213 255 0 249 7
7.16405296325683594 4.72984027862548828 0.18238358199596405 213 255 0 249 7
7.14582061767578125 4.77070760726928711 0.181539520621299744 213 255 0 249 7
7.2205967903137207 4.59497499465942383 0.406636208295822144 213 255 0 249 7
7.1142125129699707 4.88095712661743164 0.183266997337341309 213 255 0 249 7
7.16556119918823242 4.73602867126464844 0.279036760330200195 213 255 0 249 7
7.15637493133544922 4.76534223556518555 0.270097136497497559 213 255 0 249 7
7.19979476928710938 4.64515972137451172 0.33937498927116394 213 255 0 249 7
7.22694492340087891 4.56613397598266602 0.327267825603485107 213 255 0 249 7
7.22509670257568359 4.58317279815673828 0.357352912425994873 213 255 0 249 7
7.20309925079345703 4.64499998092651367 0.384999990463256836 213 255 0 249 7
7.18336391448974609 4.70131444931030273 0.424833685159683228 213 255 0 249 7
7.20387554168701172 4.65019416809082031 0.478749990463256836 213 255 0 249 7
7.17170476913452148 4.71363687515258789 0.307405263185501099 213 255 0 249 7
7.15733146667480469 4.76761627197265625 0.336877167224884033 213 255 0 249 7
7.145416259765625 4.79860687255859375 0.341431677341461182 213 255 0 249 7
7.1763310432434082 4.71406126022338867 0.366209179162979126 213 255 0 249 7
7.20117950439453125 4.77435636520385742 1.38464021682739258 213 255 0 249 7
7.18930482864379883 4.79386281967163086 1.35915720462799072 213 255 0 249 7
7.18504190444946289 4.81380271911621094 1.4239506721496582 213 255 0 249 7
7.16340541839599609 4.86160421371459961 1.40684926509857178 213 255 0 249 7
7.1629033088684082 4.85114526748657227 1.1629486083984375 213 255 0 249 7
7.17559432983398438 4.75156307220458984 0.855463027954101562 213 255 0 249 7
7.18592071533203125 4.72018671035766602 0.807534933090209961 213 255 0 249 7
7.16794633865356445 4.80161666870117188 0.889104843139648438 213 255 0 249 7
7.12906932830810547 4.87244272232055664 0.608194172382354736 213 255 0 249 7
7.13553857803344727 4.84401750564575195 0.634140133857727051 213 255 0 249 7
7.13311433792114258 4.83848953247070312 0.593301117420196533 213 255 0 249 7
7.12329244613647461 4.87048864364624023 0.559754908084869385 213 255 0 249 7
7.23850488662719727 4.63500022888183594 1.05812501907348633 213 255 0 249 7
7.25800943374633789 4.58340358734130859 1.07311153411865234 213 255 0 249 7
7.25840997695922852 4.58734321594238281 1.11937284469604492 213 255 0 249 7
7.19106912612915039 4.77751636505126953 1.32123470306396484 213 255 0 249 7
7.20311737060546875 4.74210596084594727 1.17639040946960449 213 255 0 249 7
7.14556074142456055 4.82839679718017578 0.702602148056030273 213 255 0 249 7
7.13628196716308594 4.86702156066894531 0.76065361499786377 213 255 0 249 7
7.14391899108886719 4.83880376815795898 0.749174118041992188 213 255 0 249 7
7.14584445953369141 4.83837413787841797 0.805662095546722412 213 255 0 249 7
7.15617895126342773 4.81337070465087891 0.723492205142974854 213 255 0 249 7
7.15133523941040039 4.80844354629516602 0.609091877937316895 213 255 0 249 7
7.18948602676391602 4.76075363159179688 1.05021083354949951 213 255 0 249 7
7.21079397201538086 4.71077966690063477 1.11404085159301758 213 255 0 249 7
7.21349668502807617 4.70733165740966797 1.07784628868103027 213 255 0 249 7
7.22902584075927734 4.69753503799438477 1.37178874015808105 213 255 0 249 7
7.24553489685058594 4.64999961853027344 1.36249995231628418 213 255 0 249 7
7.2302398681640625 4.68952083587646484 1.42228162288665771 213 255 0 249 7
7.181610107421875 4.79872846603393555 1.0710594654083252 213 255 0 249 7
7.15316200256347656 4.84348630905151367 1.04399502277374268 213 255 0 249 7
7.17776250839233398 4.81448602676391602 1.12250673770904541 213 255 0 249 7
7.15586423873901367 4.84939050674438477 1.08551299571990967 213 255 0 249 7
7.25177621841430664 4.61556386947631836 1.44910097122192383 213 255 0 249 7
7.26423835754394531 4.58125162124633789 1.45724582672119141 213 255 0 249 7
7.26974582672119141 4.55261135101318359 1.35229611396789551 213 255 0 249 7
7.26320075988769531 4.60339021682739258 1.41547060012817383 213 255 0 249 7
7.19252824783325195 4.70901155471801758 0.667699158191680908 213 255 0 249 7
7.26738405227661133 4.5725407600402832 1.24400389194488525 213 255 0 249 7
7.23047637939453125 4.66710186004638672 1.22904253005981445 213 255 0 249 7
7.25473880767822266 4.61816883087158203 1.25575852394104004 213 255 0 249 7
7.26382541656494141 4.56702470779418945 1.19540572166442871 213 255 0 249 7
7.18245315551757812 4.71764135360717773 0.558269500732421875 213 255 0 249 7
7.20707273483276367 4.71113252639770508 1.03878223896026611 213 255 0 249 7
7.22823953628540039 4.6575474739074707 1.088370680809021 213 255 0 249 7
7.21356821060180664 4.65915107727050781 0.836737990379333496 213 255 0 249 7
7.19173002243041992 4.70453786849975586 0.855307102203369141 213 255 0 249 7
7.20066642761230469 4.69247198104858398 0.769221901893615723 213 255 0 249 7
7.21304035186767578 4.65972042083740234 0.744915485382080078 213 255 0 249 7
7.19741582870483398 4.69604301452636719 0.732552528381347656 213 255 0 249 7
7.22746896743774414 4.6219635009765625 0.769034326076507568 213 255 0 249 7
7.28835391998291016 4.5247802734375 1.49117982387542725 213 255 0 249 7
7.22764444351196289 4.68532991409301758 1.44650483131408691 213 255 0 249 7
7.21091365814208984 4.73256826400756836 1.44292843341827393 213 255 0 249 7
7.25186634063720703 4.62766170501708984 1.49056708812713623 213 255 0 249 7
7.22966480255126953 4.60809183120727539 0.848676145076751709 213 255 0 249 7
7.21938610076904297 4.62165355682373047 0.810259759426116943 213 255 0 249 7
7.22351312637329102 4.63939476013183594 0.862871825695037842 213 255 0 249 7
7.24910926818847656 4.54590749740600586 0.808507442474365234 213 255 0 249 7
7.24008941650390625 4.58329057693481445 0.862875163555145264 213 255 0 249 7
7.17685461044311523 4.82579278945922852 1.48843514919281006 213 255 0 249 7
7.18905067443847656 4.77565097808837891 1.10486578941345215 213 255 0 249 7
7.19320106506347656 4.75665473937988281 1.08936393260955811 213 255 0 249 7
7.21940994262695312 4.62306976318359375 0.569466710090637207 213 255 0 249 7
7.21151065826416016 4.64852714538574219 0.649479687213897705 213 255 0 249 7
7.23441553115844727 4.5717768669128418 0.63427436351776123 213 255 0 249 7
7.23491048812866211 4.58178043365478516 0.577961444854736328 213 255 0 249 7
7.12880468368530273 4.88404273986816406 0.685551166534423828 213 255 0 249 7
7.13320493698120117 4.89364957809448242 0.746211230754852295 213 255 0 249 7
7.15271568298339844 4.88611268997192383 1.30655097961425781 213 255 0 249 7
7.16814374923706055 4.76406145095825195 0.591377556324005127 213 255 0 249 7
7.14610528945922852 4.8933720588684082 1.13108348846435547 213 255 0 249 7
7.1507258415222168 4.88723897933959961 1.16420722007751465 213 255 0 249 7
7.15053415298461914 4.90164899826049805 1.19702601432800293 213 255 0 249 7
7.15573835372924805 4.86353206634521484 1.19635558128356934 213 255 0 249 7
7.24395990371704102 4.61226987838745117 0.990650355815887451 213 255 0 249 7
7.25969886779785156 4.56167936325073242 0.9922141432762146 213 255 0 249 7
7.25293254852294922 4.60283613204956055 1.02674925327301025 213 255 0 249 7
7.23686838150024414 4.62287569046020508 0.887230455875396729 213 255 0 249 7
7.25009250640869141 4.57713413238525391 0.889441609382629395 213 255 0 249 7
7.25716161727905273 4.55525875091552734 0.939228296279907227 213 255 0 249 7
7.25392580032348633 4.59122657775878906 0.957249641418457031 213 255 0 249 7
7.21397829055786133 4.68003463745117188 0.896451473236083984 213 255 0 249 7
7.21117210388183594 4.69867229461669922 0.919764459133148193 213 255 0 249 7
7.2255091667175293 4.65335416793823242 0.939667105674743652 213 255 0 249 7
7.25171041488647461 4.61028194427490234 1.19380617141723633 213 255 0 249 7
7.26311874389648438 4.58473634719848633 1.16435980796813965 213 255 0 249 7
7.2427830696105957 4.62761449813842773 1.11259174346923828 213 255 0 249 7
7.25275468826293945 4.61593961715698242 1.1462780237197876 213 255 0 249 7
7.26916170120239258 4.55040264129638672 1.15233063697814941 213 255 0 249 7
7.26361179351806641 4.55880165100097656 1.12457871437072754 213 255 0 249 7
7.13941669464111328 4.89284992218017578 0.99166947603225708 213 255 0 249 7
7.14249753952026367 4.87824916839599609 1.0314643383026123 213 255 0 249 7
7.15733432769775391 4.9049835205078125 1.42937684059143066 213 255 0 249 7
7.15765714645385742 4.88262510299682617 1.37064170837402344 213 255 0 249 7
7.15601348876953125 4.88632869720458984 1.42275869846343994 213 255 0 249 7
7.28045558929443359 4.5415802001953125 1.40438687801361084 213 255 0 249 7
7.18580484390258789 4.78362560272216797 1.13242638111114502 213 255 0 249 7
7.12602472305297852 4.88113927841186523 0.65270620584487915 213 255 0 249 7
7.12673568725585938 4.88647317886352539 0.577388107776641846 213 255 0 249 7
7.13363981246948242 4.87801408767700195 0.815490067005157471 213 255 0 249 7
7.23767566680908203 4.59535837173461914 0.735678195953369141 213 255 0 249 7
7.19887304306030273 4.68103981018066406 0.684767305850982666 213 255 0 249 7
7.21473979949951172 4.64406347274780273 0.697751522064208984 213 255 0 249 7
7.16509008407592773 4.77021360397338867 0.639753758907318115 213 255 0 249 7
7.1833796501159668 4.73423290252685547 0.706192493438720703 213 255 0 249 7
7.17151165008544922 4.76231527328491211 0.665238916873931885 213 255 0 249 7
7.15461540222167969 4.90498447418212891 1.2537081241607666 213 255 0 249 7
7.15358161926269531 4.89124822616577148 1.25057148933410645 213 255 0 249 7
7.23443794250488281 4.66489362716674805 1.27940106391906738 213 255 0 249 7
7.23723220825195312 4.66240787506103516 1.31997501850128174 213 255 0 249 7
7.26362752914428711 4.5969233512878418 1.30845010280609131 213 255 0 249 7
7.19967746734619141 4.73083591461181641 1.00284850597381592 213 255 0 249 7
7.21206140518188477 4.72599506378173828 1.2909616231918335 213 255 0 249 7
7.19457101821899414 4.77300071716308594 1.28663468360900879 213 255 0 249 7
7.19020748138427734 4.70100021362304688 0.602426111698150635 213 255 0 249 7
7.23794651031494141 4.63190507888793945 0.969606101512908936 213 255 0 249 7
7.20850229263305664 4.70684528350830078 0.963968217372894287 213 255 0 249 7
7.22198915481567383 4.6778411865234375 0.969972014427185059 213 255 0 249 7
7.22351837158203125 4.6743168830871582 1.01715052127838135 213 255 0 249 7
7.17682552337646484 4.75929450988769531 0.700407862663269043 213 255 0 249 7
7.17011213302612305 4.77612113952636719 0.765116095542907715 213 255 0 249 7
7.19136857986450195 4.72935056686401367 0.763075828552246094 213 255 0 249 7
7.21201467514038086 4.72249650955200195 1.16226232051849365 213 255 0 249 7
7.19946765899658203 4.76430559158325195 1.191489577293396 213 255 0 249 7
7.1558837890625 4.90068721771240234 1.48042738437652588 213 255 0 249 7
7.17180061340332031 4.80513620376586914 0.966059207916259766 213 255 0 249 7
7.15425729751586914 4.84049797058105469 0.969556331634521484 213 255 0 249 7
7.16821575164794922 4.81850671768188477 1.02016746997833252 213 255 0 249 7
7.1495203971862793 4.85170221328735352 1.00931310653686523 213 255 0 249 7
7.18373870849609375 4.7992711067199707 1.17938005924224854 213 255 0 249 7
7.17933893203735352 4.83191108703613281 1.38826882839202881 213 255 0 249 7
7.16779851913452148 4.85054826736450195 1.35583817958831787 213 255 0 249 7
7.15367221832275391 4.88985538482666016 1.33166670799255371 213 255 0 249 7
7.15978717803955078 4.86372709274291992 1.2928309440612793 213 255 0 249 7
7.1784367561340332 4.82697629928588867 1.30929160118103027 213 255 0 249 7
7.20133829116821289 4.67836380004882812 0.791456937789916992 213 255 0 249 7
7.22048616409301758 4.70702743530273438 1.48941528797149658 213 255 0 249 7
7.202880859375 4.75452566146850586 1.48702490329742432 213 255 0 249 7
7.14628076553344727 4.88234663009643555 1.11304211616516113 213 255 0 249 7
7.14361000061035156 4.89281749725341797 1.07026159763336182 213 255 0 249 7
7.1919102668762207 4.73291110992431641 0.882351040840148926 213 255 0 249 7
7.23179912567138672 4.66706514358520508 1.19567763805389404 213 255 0 249 7
7.22315788269042969 4.69382905960083008 1.20783698558807373 213 255 0 249 7
7.21293163299560547 4.72589492797851562 1.22799324989318848 213 255 0 249 7
7.16590309143066406 4.84387540817260742 1.44144392013549805 213 255 0 249 7
7.17217159271240234 4.83422088623046875 1.46333122253417969 213 255 0 249 7
7.16855287551879883 4.86892223358154297 1.50810325145721436 213 255 0 249 7
7.14097738265991211 4.86592483520507812 0.919463098049163818 213 255 0 249 7
7.15969562530517578 4.8193817138671875 0.916755616664886475 213 255 0 249 7
7.14970588684082031 4.83955144882202148 0.940095305442810059 213 255 0 249 7
7.15595006942749023 4.81218051910400391 0.672296226024627686 213 255 0 249 7
7.13358926773071289 4.86007452011108398 0.725553810596466064 213 255 0 249 7
7.19465255737304688 4.7687525749206543 1.24402260780334473 213 255 0 249 7
7.18067598342895508 4.81647205352783203 1.22350025177001953 213 255 0 249 7
7.17218255996704102 4.83083820343017578 1.24272763729095459 213 255 0 249 7
7.18316364288330078 4.76891946792602539 0.966518878936767578 213 255 0 249 7
7.17976522445678711 4.77384090423583984 0.930779039859771729 213 255 0 249 7
7.22449493408203125 4.68414878845214844 1.14453601837158203 213 255 0 249 7
7.23869085311889648 4.65460824966430664 1.13752591609954834 213 255 0 249 7
7.23077726364135742 4.59740877151489258 0.671222031116485596 213 255 0 249 7
7.24027442932128906 4.58052349090576172 0.707076609134674072 213 255 0 249 7
7.2452998161315918 4.54473495483398438 0.689728975296020508 213 255 0 249 7
7.22135400772094727 4.62605953216552734 0.716619610786437988 213 255 0 249 7
7.16501855850219727 4.77030181884765625 0.800403892993927002 213 255 0 249 7
7.13764333724975586 4.8616795539855957 0.861696839332580566 213 255 0 249 7
7.15801477432250977 4.79452371597290039 0.85155487060546875 213 255 0 249 7
7.14645290374755859 4.83860921859741211 0.856012523174285889 213 255 0 249 7
7.2205815315246582 4.72107028961181641 1.41334223747253418 213 255 0 249 7
7.18265867233276367 4.80280733108520508 1.45281088352203369 213 255 0 249 7
