ply
format ascii 1.0
element vertex 462
property float x
property float y
property float z
property uchar red
property uchar green
property uchar blue
property uchar alpha
property uint label
end_header
6.24830961227416992 6.87687253952026367 0.981516778469085693 255 229 2 221 35
6.26894092559814453 7.20159769058227539 0.987567722797393799 255 229 2 221 35
6.01505565643310547 7.12306404113769531 0.985251307487487793 255 229 2 221 35
6.30236721038818359 7.3578038215637207 0.992891132831573486 255 229 2 221 35
6.31302165985107422 7.36084175109863281 1.00244021415710449 255 229 2 221 35
6.29131507873535156 7.34722423553466797 1.02132201194763184 255 229 2 221 35
6.28784275054931641 7.33628559112548828 1.01035988330841064 255 229 2 221 35
6.28667163848876953 7.44236469268798828 0.99235987663269043 255 229 2 221 35
5.89436960220336914 7.47169589996337891 0.995468199253082275 255 229 2 221 35
6.15609359741210938 7.19499969482421875 0.987172126770019531 255 229 2 221 35
6.0149998664855957 7.30499982833862305 0.990019083023071289 255 229 2 221 35
6.08813667297363281 6.90297651290893555 0.975232422351837158 255 229 2 221 35
6.08517026901245117 6.94164133071899414 0.982608199119567871 255 229 2 221 35
6.10440921783447266 6.93320703506469727 0.984038174152374268 255 229 2 221 35
6.30408716201782227 7.08661413192749023 0.988932549953460693 255 229 2 221 35
6.05180835723876953 7.03110218048095703 0.984453201293945312 255 229 2 221 35
6.40983200073242188 7.44774007797241211 0.998933672904968262 255 229 2 221 35
6.47386455535888672 7.449981689453125 0.997328400611877441 255 229 2 221 35
6.4211125373840332 7.47288799285888672 0.998708248138427734 255 229 2 221 35
6.48587417602539062 7.48435020446777344 0.993684530258178711 255 229 2 221 35
6.29219579696655273 7.13199329376220703 0.986729204654693604 255 229 2 221 35
6.28499984741210938 6.98999977111816406 0.985277652740478516 255 229 2 221 35
6.13167667388916016 6.82474374771118164 0.980407178401947021 255 229 2 221 35
6.12545108795166016 6.86604785919189453 0.982526481151580811 255 229 2 221 35
6.11260366439819336 6.84075593948364258 0.976398587226867676 255 229 2 221 35
6.13984346389770508 6.93531227111816406 0.983571529388427734 255 229 2 221 35
6.0677342414855957 7.02495288848876953 0.985538005828857422 255 229 2 221 35
6.30471515655517578 6.98491668701171875 0.986840963363647461 255 229 2 221 35
6.16385078430175781 7.324310302734375 0.990003585815429688 255 229 2 221 35
6.19321107864379883 7.31381034851074219 0.990606009960174561 255 229 2 221 35
6.20929908752441406 7.38071870803833008 0.991086423397064209 255 229 2 221 35
6.2062993049621582 7.3621068000793457 0.9945182204246521 255 229 2 221 35
6.39763116836547852 6.94334793090820312 0.992344856262207031 255 229 2 221 35
6.40144586563110352 6.92663812637329102 0.984852790832519531 255 229 2 221 35
6.35209512710571289 6.95265674591064453 0.987445175647735596 255 229 2 221 35
6.37686777114868164 7.44293069839477539 0.994924187660217285 255 229 2 221 35
6.37190341949462891 6.91492700576782227 0.982583761215209961 255 229 2 221 35
6.33209609985351562 6.94569206237792969 0.984669029712677002 255 229 2 221 35
6.25987672805786133 6.86538124084472656 0.984790921211242676 255 229 2 221 35
6.39857244491577148 7.43434906005859375 1.00374162197113037 255 229 2 221 35
6.39802360534667969 7.42476129531860352 1.01697695255279541 255 229 2 221 35
6.33994436264038086 7.3923497200012207 0.993054509162902832 255 229 2 221 35
6.32862472534179688 7.43951940536499023 0.995764315128326416 255 229 2 221 35
6.32201719284057617 7.34721660614013672 0.968808233737945557 255 229 2 221 35
6.30324125289916992 7.36947202682495117 0.98772042989730835 255 229 2 221 35
6.19952774047851562 6.84320783615112305 0.980642974376678467 255 229 2 221 35
6.22109365463256836 7.17421865463256836 0.986714839935302734 255 229 2 221 35
6.41085386276245117 7.34708786010742188 0.963253974914550781 255 229 2 221 35
6.30735874176025391 7.34308958053588867 0.980463564395904541 255 229 2 221 35
5.96043825149536133 7.26174497604370117 0.985082328319549561 255 229 2 221 35
5.96930170059204102 7.28440427780151367 0.990618348121643066 255 229 2 221 35
5.93059015274047852 7.41615200042724609 0.993833065032958984 255 229 2 221 35
6.09039020538330078 7.33179664611816406 0.99045264720916748 255 229 2 221 35
5.94499969482421875 7.47499990463256836 0.99427717924118042 255 229 2 221 35
6.25720071792602539 7.39971256256103516 0.991602838039398193 255 229 2 221 35
6.28526163101196289 7.38925409317016602 0.993972182273864746 255 229 2 221 35
6.43940877914428711 7.38748979568481445 0.996926307678222656 255 229 2 221 35
6.42656755447387695 7.36361932754516602 0.982159852981567383 255 229 2 221 35
6.37056255340576172 7.36466312408447266 0.975047528743743896 255 229 2 221 35
6.41649484634399414 7.38947629928588867 0.986769497394561768 255 229 2 221 35
6.39791250228881836 7.41153097152709961 0.995132267475128174 255 229 2 221 35
6.44196844100952148 7.40913105010986328 1.02407872676849365 255 229 2 221 35
6.39592075347900391 7.41138458251953125 1.01620268821716309 255 229 2 221 35
5.93216514587402344 7.36141633987426758 0.990552723407745361 255 229 2 221 35
6.09375 7.05249977111816406 0.985314846038818359 255 229 2 221 35
6.13765621185302734 7.05843734741210938 0.985202908515930176 255 229 2 221 35
6.19313144683837891 6.89131641387939453 0.982838273048400879 255 229 2 221 35
6.08527374267578125 7.51364946365356445 0.994590163230895996 255 229 2 221 35
6.00405263900756836 7.19694709777832031 0.988577663898468018 255 229 2 221 35
6.05499982833862305 7.16749954223632812 0.987196207046508789 255 229 2 221 35
5.74141407012939453 8.03754615783691406 1.00695371627807617 255 229 2 221 35
5.7049870491027832 8.02215480804443359 1.00603640079498291 255 229 2 221 35
6.47599601745605469 7.59953880310058594 1.00256550312042236 255 229 2 221 35
6.45407819747924805 7.63082218170166016 1.00456368923187256 255 229 2 221 35
6.40921258926391602 7.6106867790222168 1.00855374336242676 255 229 2 221 35
5.79388618469238281 7.77869272232055664 1.0026094913482666 255 229 2 221 35
5.77007770538330078 7.79886198043823242 0.997560024261474609 255 229 2 221 35
5.79738759994506836 7.8557133674621582 1.00316548347473145 255 229 2 221 35
5.81350994110107422 7.87178707122802734 1.00432968139648438 255 229 2 221 35
6.36334848403930664 7.56447649002075195 1.01512289047241211 255 229 2 221 35
6.39585256576538086 7.5763850212097168 1.01111650466918945 255 229 2 221 35
6.36729717254638672 7.58627510070800781 1.0079042911529541 255 229 2 221 35
6.3333430290222168 7.48609638214111328 0.994295597076416016 255 229 2 221 35
6.32572126388549805 7.55574798583984375 0.998352229595184326 255 229 2 221 35
6.34361124038696289 7.59284114837646484 1.00394046306610107 255 229 2 221 35
6.33354091644287109 7.94143962860107422 1.00379276275634766 255 229 2 221 35
6.30917596817016602 7.53953933715820312 0.996572971343994141 255 229 2 221 35
5.90687465667724609 7.57093715667724609 0.997070908546447754 255 229 2 221 35
6.18877220153808594 7.96911096572875977 1.02115428447723389 255 229 2 221 35
6.20657444000244141 7.96107149124145508 1.00430023670196533 255 229 2 221 35
5.92547988891601562 7.83841753005981445 1.03842031955718994 255 229 2 221 35
5.98483037948608398 7.86900901794433594 1.0462489128112793 255 229 2 221 35
5.97510862350463867 7.87476682662963867 1.03469622135162354 255 229 2 221 35
6.24643945693969727 7.65491819381713867 0.995724201202392578 255 229 2 221 35
6.2388916015625 7.60974502563476562 0.994958281517028809 255 229 2 221 35
6.36900997161865234 7.48963069915771484 0.996925771236419678 255 229 2 221 35
6.03585910797119141 7.43601560592651367 0.993157267570495605 255 229 2 221 35
5.98250007629394531 7.625 0.997651338577270508 255 229 2 221 35
6.16511726379394531 7.73738288879394531 0.997430264949798584 255 229 2 221 35
5.90490388870239258 7.82905149459838867 1.03514134883880615 255 229 2 221 35
5.80704307556152344 7.93661975860595703 1.00337958335876465 255 229 2 221 35
5.80784940719604492 7.98022365570068359 1.00492775440216064 255 229 2 221 35
6.04223966598510742 7.92146396636962891 1.02295517921447754 255 229 2 221 35
6.09530353546142578 7.92965793609619141 1.01574325561523438 255 229 2 221 35
6.06543493270874023 7.95619058609008789 1.02466201782226562 255 229 2 221 35
6.22842836380004883 7.98773813247680664 1.01092398166656494 255 229 2 221 35
6.26443672180175781 8.002044677734375 1.00293648242950439 255 229 2 221 35
6.32942390441894531 7.99934911727905273 1.01025938987731934 255 229 2 221 35
6.31064176559448242 7.91262197494506836 1.00072860717773438 255 229 2 221 35
6.32168722152709961 7.85149288177490234 1.00597012042999268 255 229 2 221 35
6.34453153610229492 7.88646554946899414 1.00332832336425781 255 229 2 221 35
5.93603134155273438 7.87412309646606445 1.00290656089782715 255 229 2 221 35
5.98947048187255859 7.89451837539672852 1.00457119941711426 255 229 2 221 35
5.93814706802368164 7.87964916229248047 1.01445662975311279 255 229 2 221 35
5.9764409065246582 7.89623355865478516 1.01494717597961426 255 229 2 221 35
5.89497900009155273 7.83500194549560547 1.01681351661682129 255 229 2 221 35
5.83971977233886719 7.5994267463684082 0.994816005229949951 255 229 2 221 35
5.72512722015380859 7.98838472366333008 1.00588059425354004 255 229 2 221 35
5.75665378570556641 7.87894153594970703 1.00372087955474854 255 229 2 221 35
6.21368837356567383 7.77782297134399414 0.998173713684082031 255 229 2 221 35
5.84500026702880859 7.79312467575073242 1.00174474716186523 255 229 2 221 35
5.89817285537719727 7.83718585968017578 1.00258803367614746 255 229 2 221 35
5.84758186340332031 7.83316898345947266 1.00384974479675293 255 229 2 221 35
5.93531227111816406 7.68578147888183594 0.998728752136230469 255 229 2 221 35
6.26626920700073242 7.69921016693115234 0.997627437114715576 255 229 2 221 35
6 7.71749973297119141 0.999104857444763184 255 229 2 221 35
6.29438304901123047 8.059906005859375 1.01292705535888672 255 229 2 221 35
6.28335046768188477 8.01288795471191406 1.00627684593200684 255 229 2 221 35
6.26739645004272461 8.03565216064453125 1.01209783554077148 255 229 2 221 35
5.7467036247253418 7.86041259765625 0.995363235473632812 255 229 2 221 35
5.72320461273193359 7.95140981674194336 1.00158119201660156 255 229 2 221 35
6.25040245056152344 7.5214543342590332 0.993485867977142334 255 229 2 221 35
6.30742454528808594 7.60239410400390625 1.00710439682006836 255 229 2 221 35
5.87265491485595703 7.51757287979125977 0.994713246822357178 255 229 2 221 35
5.86415004730224609 7.57951593399047852 0.998747348785400391 255 229 2 221 35
5.98167324066162109 7.87358903884887695 1.00196933746337891 255 229 2 221 35
6.02036952972412109 7.91067314147949219 1.02271449565887451 255 229 2 221 35
5.80359792709350586 7.70128154754638672 0.995439827442169189 255 229 2 221 35
5.8329010009765625 7.64861106872558594 0.999032914638519287 255 229 2 221 35
5.84155368804931641 7.6708064079284668 1.00071358680725098 255 229 2 221 35
6.4296875 7.58636903762817383 0.997256278991699219 255 229 2 221 35
6.39512157440185547 7.55732822418212891 0.995043754577636719 255 229 2 221 35
6.46532154083251953 7.57411098480224609 0.995252430438995361 255 229 2 221 35
6.44883012771606445 7.5266413688659668 0.991623580455780029 255 229 2 221 35
6.05585956573486328 7.84328079223632812 1.00026452541351318 255 229 2 221 35
6.09217262268066406 7.93989849090576172 1.02123177051544189 255 229 2 221 35
6.13422298431396484 7.97960329055786133 1.02475345134735107 255 229 2 221 35
6.09875679016113281 7.92074394226074219 1.00456857681274414 255 229 2 221 35
6.10855960845947266 7.90660476684570312 1.00150561332702637 255 229 2 221 35
6.20015573501586914 7.83132457733154297 0.998598933219909668 255 229 2 221 35
6.25685024261474609 7.87554836273193359 0.999260187149047852 255 229 2 221 35
6.21826887130737305 7.94576692581176758 1.00090014934539795 255 229 2 221 35
6.28124761581420898 7.58245658874511719 0.997556328773498535 255 229 2 221 35
6.26420021057128906 7.63090801239013672 1.00304758548736572 255 229 2 221 35
6.05570316314697266 7.66046857833862305 0.997410416603088379 255 229 2 221 35
5.75901269912719727 8.01325607299804688 1.00749599933624268 255 229 2 221 35
6.24280834197998047 7.83612251281738281 1.0003056526184082 255 229 2 221 35
6.29372072219848633 7.87460899353027344 1.00266480445861816 255 229 2 221 35
5.94687461853027344 7.80375003814697266 1.00034737586975098 255 229 2 221 35
5.74941301345825195 8.04460716247558594 1.01604664325714111 255 229 2 221 35
5.74819803237915039 8.09220027923583984 1.01320862770080566 255 229 2 221 35
5.75359201431274414 8.18686771392822266 1.03519153594970703 255 229 2 221 35
5.79579639434814453 8.22124195098876953 1.02379703521728516 255 229 2 221 35
5.85000085830688477 8.22581005096435547 1.02192306518554688 255 229 2 221 35
5.77604246139526367 8.1969451904296875 1.00722289085388184 255 229 2 221 35
5.79901790618896484 8.21229171752929688 1.00367963314056396 255 229 2 221 35
5.79013729095458984 8.01204776763916016 1.04091095924377441 255 229 2 221 35
5.82765674591064453 7.89355611801147461 1.03101456165313721 255 229 2 221 35
5.80550670623779297 7.87286710739135742 1.02516734600067139 255 229 2 221 35
5.81215047836303711 7.8824925422668457 1.01475512981414795 255 229 2 221 35
5.80851268768310547 7.87587594985961914 1.03283107280731201 255 229 2 221 35
5.83723783493041992 7.84548139572143555 1.01505625247955322 255 229 2 221 35
5.74624872207641602 8.06245708465576172 1.0375220775604248 255 229 2 221 35
5.74246788024902344 8.02044486999511719 1.03603553771972656 255 229 2 221 35
5.88920402526855469 8.16879653930664062 1.05645513534545898 255 229 2 221 35
5.8602137565612793 8.12523078918457031 1.04916512966156006 255 229 2 221 35
5.90090751647949219 8.0894622802734375 1.04889023303985596 255 229 2 221 35
5.87104034423828125 8.09787464141845703 1.04606282711029053 255 229 2 221 35
5.83606147766113281 8.07224750518798828 1.0271754264831543 255 229 2 221 35
5.9386754035949707 7.85816812515258789 1.04879868030548096 255 229 2 221 35
5.93708229064941406 7.89447212219238281 1.04043126106262207 255 229 2 221 35
5.86926031112670898 8.17770004272460938 1.04223620891571045 255 229 2 221 35
5.88298654556274414 8.20442676544189453 1.03732740879058838 255 229 2 221 35
5.8516387939453125 8.21547412872314453 1.03580975532531738 255 229 2 221 35
5.81408309936523438 8.11884784698486328 1.0340503454208374 255 229 2 221 35
5.78714656829833984 8.08706474304199219 1.02933609485626221 255 229 2 221 35
5.81339073181152344 8.09698677062988281 1.02177929878234863 255 229 2 221 35
5.8061366081237793 7.9065251350402832 1.03939497470855713 255 229 2 221 35
5.79599523544311523 7.91500663757324219 1.03500425815582275 255 229 2 221 35
5.84448051452636719 7.92891168594360352 1.0231940746307373 255 229 2 221 35
5.81243133544921875 7.9325709342956543 1.01610589027404785 255 229 2 221 35
5.79796457290649414 7.94827747344970703 1.03389942646026611 255 229 2 221 35
5.82245874404907227 7.96667146682739258 1.01552236080169678 255 229 2 221 35
5.78783702850341797 7.98550319671630859 1.03585326671600342 255 229 2 221 35
5.87370634078979492 7.9647831916809082 1.05742835998535156 255 229 2 221 35
5.85487174987792969 7.96007823944091797 1.03961336612701416 255 229 2 221 35
5.84977149963378906 7.97820711135864258 1.05388784408569336 255 229 2 221 35
5.89344501495361328 7.96640968322753906 1.04898929595947266 255 229 2 221 35
5.92304277420043945 8.01221466064453125 1.04689013957977295 255 229 2 221 35
5.76492881774902344 8.10633754730224609 1.03675448894500732 255 229 2 221 35
5.82931327819824219 8.13156795501708984 1.04654264450073242 255 229 2 221 35
6.01308155059814453 7.92800235748291016 1.02892327308654785 255 229 2 221 35
5.99594306945800781 7.89559602737426758 1.02876698970794678 255 229 2 221 35
5.80703926086425781 7.95230627059936523 1.04985129833221436 255 229 2 221 35
5.79089450836181641 7.98107624053955078 1.0464862585067749 255 229 2 221 35
5.82274389266967773 8.04838371276855469 1.04064524173736572 255 229 2 221 35
5.88312911987304688 8.02787303924560547 1.05362153053283691 255 229 2 221 35
5.87912750244140625 8.0728912353515625 1.04623162746429443 255 229 2 221 35
5.91833591461181641 8.05691909790039062 1.04477107524871826 255 229 2 221 35
5.83516263961791992 7.83664417266845703 1.02562594413757324 255 229 2 221 35
5.87833309173583984 7.8247838020324707 1.02509152889251709 255 229 2 221 35
5.88559770584106445 7.94523239135742188 1.02559030055999756 255 229 2 221 35
5.88947391510009766 7.92580175399780273 1.01285970211029053 255 229 2 221 35
5.73493051528930664 8.07963943481445312 1.03501462936401367 255 229 2 221 35
5.73301219940185547 8.13824462890625 1.03458189964294434 255 229 2 221 35
5.72906064987182617 8.09929084777832031 1.03284537792205811 255 229 2 221 35
5.86722517013549805 7.82669925689697266 1.03418481349945068 255 229 2 221 35
5.94469404220581055 7.92510175704956055 1.04464590549468994 255 229 2 221 35
5.92770814895629883 7.94113874435424805 1.04306554794311523 255 229 2 221 35
5.97184181213378906 7.89968299865722656 1.0441133975982666 255 229 2 221 35
5.77507400512695312 8.20645523071289062 1.0369873046875 255 229 2 221 35
5.8144984245300293 8.22161674499511719 1.03536725044250488 255 229 2 221 35
5.76312541961669922 8.14521121978759766 1.04558289051055908 255 229 2 221 35
5.8084716796875 8.17716503143310547 1.04367506504058838 255 229 2 221 35
5.72868633270263672 8.07714176177978516 1.04594457149505615 255 229 2 221 35
5.76379871368408203 8.12172985076904297 1.04548788070678711 255 229 2 221 35
5.73636293411254883 8.11575603485107422 1.04559957981109619 255 229 2 221 35
5.75192975997924805 8.16723060607910156 1.01390838623046875 255 229 2 221 35
5.88619470596313477 8.21135425567626953 1.0245593786239624 255 229 2 221 35
5.84874963760375977 8.20977783203125 1.00788021087646484 255 229 2 221 35
5.87995290756225586 7.88745737075805664 1.02555131912231445 255 229 2 221 35
5.91181039810180664 7.84908056259155273 1.03617656230926514 255 229 2 221 35
5.85981035232543945 7.8371424674987793 1.03077292442321777 255 229 2 221 35
5.79407358169555664 8.00305080413818359 1.01625895500183105 255 229 2 221 35
5.78773641586303711 8.05527114868164062 1.03416705131530762 255 229 2 221 35
5.73318290710449219 8.0948486328125 1.00751340389251709 255 229 2 221 35
6.00906276702880859 8.40048503875732422 0.963154137134552002 255 229 2 221 35
6.00232076644897461 8.45385265350341797 0.968235015869140625 255 229 2 221 35
6.01978349685668945 8.47404003143310547 1.02600884437561035 255 229 2 221 35
6.05557966232299805 8.40465164184570312 0.990175366401672363 255 229 2 221 35
6.01964378356933594 8.41481971740722656 1.00671136379241943 255 229 2 221 35
6.04665327072143555 8.41462898254394531 0.991314709186553955 255 229 2 221 35
6.01757001876831055 8.40821170806884766 0.967707335948944092 255 229 2 221 35
6.05866909027099609 8.42342281341552734 0.999780476093292236 255 229 2 221 35
6.01014804840087891 8.44286155700683594 0.994490385055541992 255 229 2 221 35
6.0421299934387207 8.39466762542724609 0.975737988948822021 255 229 2 221 35
5.70194387435913086 8.48497962951660156 0.91825944185256958 255 229 2 221 35
5.72942018508911133 8.18931484222412109 0.953510582447052002 255 229 2 221 35
5.70756101608276367 8.21535778045654297 0.942449450492858887 255 229 2 221 35
5.78568887710571289 8.21992588043212891 0.977124989032745361 255 229 2 221 35
5.76417207717895508 8.21553993225097656 0.962738692760467529 255 229 2 221 35
5.77298402786254883 8.22258853912353516 0.988545775413513184 255 229 2 221 35
5.67932748794555664 8.08301258087158203 1.00587809085845947 255 229 2 221 35
5.65234613418579102 8.40802669525146484 0.963126063346862793 255 229 2 221 35
5.6644134521484375 8.43056106567382812 0.964843869209289551 255 229 2 221 35
5.67727327346801758 8.4618682861328125 1.0042579174041748 255 229 2 221 35
5.64767026901245117 8.45062255859375 1.01494956016540527 255 229 2 221 35
5.63263368606567383 8.47142982482910156 1.0191878080368042 255 229 2 221 35
5.6539459228515625 8.39905357360839844 1.00619399547576904 255 229 2 221 35
5.68714523315429688 8.39010047912597656 0.981660068035125732 255 229 2 221 35
5.76163911819458008 8.46761131286621094 0.943857491016387939 255 229 2 221 35
6.01182746887207031 8.39102935791015625 1.04986262321472168 255 229 2 221 35
5.64605903625488281 8.19396877288818359 1.00877642631530762 255 229 2 221 35
5.63292026519775391 8.20260429382324219 1.00587403774261475 255 229 2 221 35
5.68180370330810547 8.28404998779296875 0.938496112823486328 255 229 2 221 35
5.67884492874145508 8.30965900421142578 0.951348841190338135 255 229 2 221 35
5.91419887542724609 8.49415016174316406 0.94138634204864502 255 229 2 221 35
5.90501165390014648 8.49590587615966797 0.897509396076202393 255 229 2 221 35
5.89819812774658203 8.50504970550537109 0.913352906703948975 255 229 2 221 35
5.98411226272583008 8.50360584259033203 0.898346006870269775 255 229 2 221 35
5.65358591079711914 8.46346855163574219 0.919266045093536377 255 229 2 221 35
5.63820028305053711 8.40646648406982422 0.944600760936737061 255 229 2 221 35
5.62910604476928711 8.44208812713623047 0.927238762378692627 255 229 2 221 35
5.63519716262817383 8.44220829010009766 0.950341582298278809 255 229 2 221 35
5.63423919677734375 8.45545196533203125 0.938862085342407227 255 229 2 221 35
5.73717784881591797 8.27973556518554688 0.964577674865722656 255 229 2 221 35
5.73800039291381836 8.23755455017089844 0.983188807964324951 255 229 2 221 35
5.74712085723876953 8.26092910766601562 0.968386590480804443 255 229 2 221 35
5.70885133743286133 8.29449462890625 0.98469841480255127 255 229 2 221 35
5.69494009017944336 8.26145267486572266 0.950205385684967041 255 229 2 221 35
5.72407293319702148 8.24980735778808594 0.95905005931854248 255 229 2 221 35
5.52934122085571289 8.49415016174316406 1.00569260120391846 255 229 2 221 35
5.55736827850341797 8.45669937133789062 1.01420438289642334 255 229 2 221 35
5.52959823608398438 8.52590465545654297 1.01633119583129883 255 229 2 221 35
5.5542759895324707 8.52709197998046875 1.01844048500061035 255 229 2 221 35
5.59565591812133789 8.55181026458740234 1.01857233047485352 255 229 2 221 35
6.00848150253295898 8.43966865539550781 1.0454857349395752 255 229 2 221 35
6.031036376953125 8.41614627838134766 1.04461264610290527 255 229 2 221 35
6.01482534408569336 8.45141506195068359 1.05044460296630859 255 229 2 221 35
6.00906181335449219 8.42332077026367188 1.06857132911682129 255 229 2 221 35
6.00744915008544922 8.412384033203125 1.06272041797637939 255 229 2 221 35
5.95459556579589844 8.45083236694335938 1.03461837768554688 255 229 2 221 35
5.96356964111328125 8.39773178100585938 1.03032898902893066 255 229 2 221 35
5.94761085510253906 8.39735221862792969 0.975080728530883789 255 229 2 221 35
5.93965578079223633 8.42162990570068359 0.990900337696075439 255 229 2 221 35
5.93726778030395508 8.43736648559570312 0.972668886184692383 255 229 2 221 35
5.95119237899780273 8.41182994842529297 1.03734612464904785 255 229 2 221 35
5.9547276496887207 8.43536949157714844 0.952976703643798828 255 229 2 221 35
5.73042488098144531 8.4595184326171875 0.960395216941833496 255 229 2 221 35
5.72976922988891602 8.48994064331054688 0.936729311943054199 255 229 2 221 35
5.59902095794677734 8.40464496612548828 1.01587426662445068 255 229 2 221 35
5.59935426712036133 8.512664794921875 1.01638507843017578 255 229 2 221 35
5.76481103897094727 8.08533382415771484 0.959057331085205078 255 229 2 221 35
5.99464845657348633 8.53882408142089844 0.969109237194061279 255 229 2 221 35
5.94921779632568359 8.48333263397216797 1.00730502605438232 255 229 2 221 35
5.95149326324462891 8.49096393585205078 1.05375385284423828 255 229 2 221 35
5.95097446441650391 8.55119705200195312 1.03217196464538574 255 229 2 221 35
5.91711235046386719 8.49811077117919922 0.985354363918304443 255 229 2 221 35
5.95318603515625 8.51409912109375 1.01554977893829346 255 229 2 221 35
6.0019993782043457 8.48495006561279297 0.982736468315124512 255 229 2 221 35
6.01761436462402344 8.49274921417236328 1.04563689231872559 255 229 2 221 35
6.00302743911743164 8.49431514739990234 1.01885867118835449 255 229 2 221 35
5.9871058464050293 8.470916748046875 0.938862144947052002 255 229 2 221 35
6.00089025497436523 8.51263332366943359 0.966967225074768066 255 229 2 221 35
6.0291142463684082 8.542266845703125 1.02400374412536621 255 229 2 221 35
5.66864776611328125 8.3571624755859375 0.955208718776702881 255 229 2 221 35
5.6498713493347168 8.26594734191894531 1.01523721218109131 255 229 2 221 35
5.61730432510375977 8.34488964080810547 1.01524925231933594 255 229 2 221 35
5.63301992416381836 8.36354255676269531 1.01523733139038086 255 229 2 221 35
5.60281229019165039 8.33031272888183594 1.01140093803405762 255 229 2 221 35
5.79876947402954102 8.47666549682617188 0.9275246262550354 255 229 2 221 35
5.77363252639770508 8.50367546081542969 0.909564673900604248 255 229 2 221 35
5.81542205810546875 8.48379898071289062 0.905113518238067627 255 229 2 221 35
5.97705602645874023 8.35496044158935547 1.00526523590087891 255 229 2 221 35
5.97247314453125 8.405487060546875 0.967304408550262451 255 229 2 221 35
5.95608282089233398 8.36996936798095703 1.00933706760406494 255 229 2 221 35
5.98296213150024414 8.40935611724853516 1.03277587890625 255 229 2 221 35
5.94263696670532227 8.38111686706542969 0.991414427757263184 255 229 2 221 35
5.67972898483276367 8.26494121551513672 1.00902020931243896 255 229 2 221 35
5.67166805267333984 8.29481029510498047 1.00939369201660156 255 229 2 221 35
5.65599489212036133 8.31503868103027344 1.01158821582794189 255 229 2 221 35
5.99426078796386719 8.49541568756103516 0.91949760913848877 255 229 2 221 35
5.99361705780029297 8.52411746978759766 0.902122259140014648 255 229 2 221 35
5.95605945587158203 8.48700809478759766 0.915678918361663818 255 229 2 221 35
5.96623516082763672 8.46648788452148438 0.911832988262176514 255 229 2 221 35
5.93657970428466797 8.47004604339599609 0.896141946315765381 255 229 2 221 35
5.97942924499511719 8.48104190826416016 0.893100500106811523 255 229 2 221 35
5.96991109848022461 8.45983219146728516 0.93051224946975708 255 229 2 221 35
5.93680524826049805 8.46395015716552734 0.949472427368164062 255 229 2 221 35
5.95318984985351562 8.43851947784423828 0.90310746431350708 255 229 2 221 35
5.71004915237426758 8.42921924591064453 0.963502705097198486 255 229 2 221 35
5.67572975158691406 8.44476699829101562 0.993027150630950928 255 229 2 221 35
5.73175573348999023 8.47310066223144531 0.970275700092315674 255 229 2 221 35
5.70811843872070312 8.46004009246826172 0.958966255187988281 255 229 2 221 35
5.68607473373413086 8.46983051300048828 0.953486800193786621 255 229 2 221 35
5.75193357467651367 8.49919414520263672 1.01534831523895264 255 229 2 221 35
5.76700353622436523 8.27559280395507812 0.962952136993408203 255 229 2 221 35
5.77367210388183594 8.25436973571777344 0.970179736614227295 255 229 2 221 35
5.74536228179931641 8.14210224151611328 0.954185307025909424 255 229 2 221 35
5.6993560791015625 8.13105201721191406 1.01047372817993164 255 229 2 221 35
5.73243618011474609 8.12703609466552734 1.01169192790985107 255 229 2 221 35
5.96487855911254883 8.50684356689453125 1.08445203304290771 255 229 2 221 35
5.98956108093261719 8.47109317779541016 1.05804109573364258 255 229 2 221 35
6.00268077850341797 8.49674606323242188 1.06080257892608643 255 229 2 221 35
5.96607255935668945 8.54304790496826172 1.05541336536407471 255 229 2 221 35
5.9663844108581543 8.46162796020507812 1.04900848865509033 255 229 2 221 35
5.9959564208984375 8.4134521484375 1.05287039279937744 255 229 2 221 35
5.96701240539550781 8.41839408874511719 1.05529844760894775 255 229 2 221 35
5.98879671096801758 8.42527198791503906 1.06406676769256592 255 229 2 221 35
6.00610017776489258 8.51613616943359375 1.09194564819335938 255 229 2 221 35
6.0206756591796875 8.50645923614501953 1.09545457363128662 255 229 2 221 35
6.03153848648071289 8.54464149475097656 1.10261893272399902 255 229 2 221 35
6.04477977752685547 8.5587921142578125 1.09567654132843018 255 229 2 221 35
6.01915359497070312 8.51533889770507812 1.06888246536254883 255 229 2 221 35
6.05102777481079102 8.54020786285400391 1.05615174770355225 255 229 2 221 35
6.04972934722900391 8.54250812530517578 1.04460442066192627 255 229 2 221 35
5.90756368637084961 8.49631977081298828 0.971023440361022949 255 229 2 221 35
5.82572603225708008 8.52221107482910156 1.01500356197357178 255 229 2 221 35
5.80749225616455078 8.50519561767578125 1.00570142269134521 255 229 2 221 35
5.86084461212158203 8.5229644775390625 1.0034337043762207 255 229 2 221 35
5.89242696762084961 8.54701805114746094 1.01544868946075439 255 229 2 221 35
5.89931917190551758 8.52898120880126953 0.998277962207794189 255 229 2 221 35
5.9910883903503418 8.38448143005371094 1.05120289325714111 255 229 2 221 35
6.03418302536010742 8.37374496459960938 0.986381888389587402 255 229 2 221 35
5.98029375076293945 8.361114501953125 0.989199340343475342 255 229 2 221 35
6.00077104568481445 8.36016178131103516 0.997055172920227051 255 229 2 221 35
5.98578834533691406 8.36954402923583984 1.03737199306488037 255 229 2 221 35
6.05102109909057617 8.41307830810546875 1.0082237720489502 255 229 2 221 35
6.00202512741088867 8.43773460388183594 0.947672784328460693 255 229 2 221 35
5.8630366325378418 8.50012397766113281 0.971938431262969971 255 229 2 221 35
5.85470676422119141 8.49614048004150391 0.920370697975158691 255 229 2 221 35
5.88712644577026367 8.50331687927246094 0.953139662742614746 255 229 2 221 35
5.86716318130493164 8.50382328033447266 0.905573070049285889 255 229 2 221 35
5.58069992065429688 8.34810352325439453 1.00530016422271729 255 229 2 221 35
5.68973684310913086 8.23477554321289062 1.00875520706176758 255 229 2 221 35
5.66402530670166016 8.21069431304931641 1.01355648040771484 255 229 2 221 35
5.70222139358520508 8.20456600189208984 1.00778710842132568 255 229 2 221 35
5.74985122680664062 8.20064449310302734 1.00263607501983643 255 229 2 221 35
5.66280031204223633 8.46783542633056641 1.01600885391235352 255 229 2 221 35
5.63535547256469727 8.50247859954833984 1.02064347267150879 255 229 2 221 35
5.73592281341552734 8.47949790954589844 1.00403010845184326 255 229 2 221 35
5.78287982940673828 8.48005390167236328 0.973309457302093506 255 229 2 221 35
5.70659828186035156 8.52417278289794922 1.03582680225372314 255 229 2 221 35
5.68857908248901367 8.50051498413085938 1.02946197986602783 255 229 2 221 35
5.72877359390258789 8.49206352233886719 1.01629114151000977 255 229 2 221 35
5.71241855621337891 8.34105587005615234 0.95987236499786377 255 229 2 221 35
5.68367767333984375 8.35366535186767578 0.959216475486755371 255 229 2 221 35
5.71530342102050781 8.36292457580566406 0.964846432209014893 255 229 2 221 35
5.69809436798095703 8.33323764801025391 0.982395529747009277 255 229 2 221 35
6.04631185531616211 8.70814132690429688 1.04248809814453125 255 229 2 221 35
6.02055025100708008 8.64947032928466797 1.06607460975646973 255 229 2 221 35
6.05308055877685547 8.66173839569091797 1.09536147117614746 255 229 2 221 35
6.04290628433227539 8.67816638946533203 1.03797197341918945 255 229 2 221 35
6.05922842025756836 8.69059085845947266 1.0619359016418457 255 229 2 221 35
6.01526546478271484 8.64791488647460938 1.03891456127166748 255 229 2 221 35
6.02347326278686523 8.70436573028564453 1.04009115695953369 255 229 2 221 35
6.06466197967529297 8.70537090301513672 1.13039946556091309 255 229 2 221 35
5.99138164520263672 8.59307289123535156 1.05250871181488037 255 229 2 221 35
5.97927618026733398 8.56792926788330078 1.07501828670501709 255 229 2 221 35
5.97425413131713867 8.54421138763427734 1.08767640590667725 255 229 2 221 35
6.02098417282104492 8.68412113189697266 1.02332425117492676 255 229 2 221 35
5.60772418975830078 8.58363056182861328 1.02380335330963135 255 229 2 221 35
5.92711877822875977 8.60169315338134766 1.03021955490112305 255 229 2 221 35
5.96375751495361328 8.66748905181884766 1.02922439575195312 255 229 2 221 35
5.99532413482666016 8.62449455261230469 1.03481757640838623 255 229 2 221 35
5.99107027053833008 8.65738964080810547 1.01977932453155518 255 229 2 221 35
5.9320836067199707 8.67567348480224609 1.02725672721862793 255 229 2 221 35
5.99994230270385742 8.70934963226318359 1.02862787246704102 255 229 2 221 35
5.9740452766418457 8.69643592834472656 1.03493070602416992 255 229 2 221 35
5.7261662483215332 8.55648231506347656 1.0369267463684082 255 229 2 221 35
5.7241816520690918 8.61346530914306641 1.04581427574157715 255 229 2 221 35
6.00153350830078125 8.60855484008789062 1.05942296981811523 255 229 2 221 35
6.00924301147460938 8.58073806762695312 1.08552324771881104 255 229 2 221 35
6.03530550003051758 8.58598613739013672 1.09327316284179688 255 229 2 221 35
6.06067752838134766 8.59170436859130859 1.09782564640045166 255 229 2 221 35
6.05987930297851562 8.56872749328613281 1.05675792694091797 255 229 2 221 35
6.02611541748046875 8.58603382110595703 1.05810391902923584 255 229 2 221 35
6.04250955581665039 8.57607746124267578 1.07348942756652832 255 229 2 221 35
6.01790666580200195 8.626861572265625 1.07789301872253418 255 229 2 221 35
6.06019210815429688 8.61988735198974609 1.10095810890197754 255 229 2 221 35
6.03971099853515625 8.56982803344726562 1.05045390129089355 255 229 2 221 35
6.07146644592285156 8.56925487518310547 1.07017767429351807 255 229 2 221 35
5.94346380233764648 8.53331279754638672 1.01232349872589111 255 229 2 221 35
5.84527349472045898 8.65041637420654297 1.01857197284698486 255 229 2 221 35
5.90229606628417969 8.689849853515625 1.02353918552398682 255 229 2 221 35
6.01787281036376953 8.54873371124267578 0.997473239898681641 255 229 2 221 35
6.01512002944946289 8.56547260284423828 0.980718910694122314 255 229 2 221 35
5.88257312774658203 8.57275772094726562 1.01739180088043213 255 229 2 221 35
5.91318941116333008 8.56621932983398438 1.02657079696655273 255 229 2 221 35
5.89493799209594727 8.64341259002685547 1.01721489429473877 255 229 2 221 35
6.10738515853881836 8.70798683166503906 1.18007493019104004 255 229 2 221 35
6.06394004821777344 8.66878890991210938 1.12386345863342285 255 229 2 221 35
6.08686351776123047 8.70113277435302734 1.14605414867401123 255 229 2 221 35
6.08376836776733398 8.63841533660888672 1.1280970573425293 255 229 2 221 35
6.10605335235595703 8.65694141387939453 1.14512252807617188 255 229 2 221 35
5.74458599090576172 8.54735851287841797 1.0205763578414917 255 229 2 221 35
5.51368904113769531 8.54034996032714844 1.01211893558502197 255 229 2 221 35
5.74705362319946289 8.58096122741699219 1.02610874176025391 255 229 2 221 35
6.12001180648803711 8.63830089569091797 1.12483549118041992 255 229 2 221 35
6.09091091156005859 8.61736679077148438 1.10645997524261475 255 229 2 221 35
5.96622467041015625 8.58505821228027344 1.03359949588775635 255 229 2 221 35
5.97146368026733398 8.61287975311279297 1.02579629421234131 255 229 2 221 35
5.94266128540039062 8.564666748046875 1.02536177635192871 255 229 2 221 35
5.62861728668212891 8.58931636810302734 1.04419684410095215 255 229 2 221 35
5.6862788200378418 8.60374927520751953 1.04147100448608398 255 229 2 221 35
5.64445781707763672 8.54503345489501953 1.03442811965942383 255 229 2 221 35
5.53663063049316406 8.55527591705322266 1.02502298355102539 255 229 2 221 35
5.76766204833984375 8.62559890747070312 1.02303910255432129 255 229 2 221 35
5.78986215591430664 8.62260723114013672 1.01909708976745605 255 229 2 221 35
5.78531074523925781 8.53396129608154297 1.01815450191497803 255 229 2 221 35
6.01249313354492188 8.57729721069335938 1.040213942527771 255 229 2 221 35
6.01723670959472656 8.58583641052246094 1.00518989562988281 255 229 2 221 35
