ply
format ascii 1.0
element vertex 606
property float x
property float y
property float z
property uchar red
property uchar green
property uchar blue
property uchar alpha
property uint label
end_header
6.15962123870849609 6.14144706726074219 1.43312489986419678 232 94 190 229 27
6.17452096939086914 6.0401301383972168 0.619900226593017578 232 94 190 229 27
6.20527935028076172 6.00203657150268555 0.640557289123535156 232 94 190 229 27
6.15539264678955078 6.07259082794189453 0.574747025966644287 232 94 190 229 27
6.17597627639770508 6.03762674331665039 0.577968597412109375 232 94 190 229 27
6.1652522087097168 6.05869197845458984 0.609894156455993652 232 94 190 229 27
6.006378173828125 6.42575597763061523 0.787535667419433594 232 94 190 229 27
6.01537036895751953 6.45424270629882812 0.76749718189239502 232 94 190 229 27
6.01905202865600586 6.41544771194458008 0.708765387535095215 232 94 190 229 27
5.99138450622558594 6.39328432083129883 0.733368933200836182 232 94 190 229 27
6.01197052001953125 6.43026828765869141 0.754449784755706787 232 94 190 229 27
6.15057182312011719 6.10239028930664062 0.619184970855712891 232 94 190 229 27
6.19988203048706055 5.98435735702514648 0.883208036422729492 232 94 190 229 27
6.07537555694580078 6.36666202545166016 1.35468745231628418 232 94 190 229 27
5.99281644821166992 6.53760051727294922 0.830781221389770508 232 94 190 229 27
6.02437257766723633 6.44542980194091797 0.967564284801483154 232 94 190 229 27
6.01465559005737305 6.45811653137207031 0.99653780460357666 232 94 190 229 27
6.00490951538085938 6.42831230163574219 0.986626625061035156 232 94 190 229 27
6.02416753768920898 6.42660951614379883 1.01889944076538086 232 94 190 229 27
6.01786088943481445 6.44099664688110352 0.990405797958374023 232 94 190 229 27
5.99961471557617188 6.41743326187133789 1.04758703708648682 232 94 190 229 27
6.00257158279418945 6.40670108795166016 0.962049901485443115 232 94 190 229 27
6.12983560562133789 6.19528102874755859 0.969466507434844971 232 94 190 229 27
6.12555074691772461 6.2010502815246582 0.8729591965675354 232 94 190 229 27
6.13889503479003906 6.16701316833496094 0.914134860038757324 232 94 190 229 27
6.00678539276123047 6.48545646667480469 0.661406219005584717 232 94 190 229 27
6.00994777679443359 6.47999954223632812 0.733749985694885254 232 94 190 229 27
5.98012781143188477 6.39518260955810547 0.957914471626281738 232 94 190 229 27
5.98226070404052734 6.38460969924926758 0.996217310428619385 232 94 190 229 27
6.00233173370361328 6.29436159133911133 0.747205913066864014 232 94 190 229 27
6.10167169570922852 6.26781225204467773 0.916562497615814209 232 94 190 229 27
6.23695945739746094 5.92240428924560547 0.90134584903717041 232 94 190 229 27
6.23729562759399414 5.92161655426025391 0.954096853733062744 232 94 190 229 27
6.17431449890136719 6.05229330062866211 0.909312129020690918 232 94 190 229 27
6.18424415588378906 6.02790403366088867 0.906923651695251465 232 94 190 229 27
6.20431661605834961 5.97499990463256836 0.932500004768371582 232 94 190 229 27
6.20429658889770508 5.97885322570800781 0.992499947547912598 232 94 190 229 27
6.12588071823120117 6.20378255844116211 1.00803589820861816 232 94 190 229 27
6.12733650207519531 6.21045875549316406 1.11181902885437012 232 94 190 229 27
6.14055013656616211 6.16688203811645508 1.09445762634277344 232 94 190 229 27
6.18472766876220703 6.08506059646606445 1.47356021404266357 232 94 190 229 27
6.17903423309326172 6.09499979019165039 1.45749998092651367 232 94 190 229 27
6.16950416564941406 6.07050991058349609 1.11191380023956299 232 94 190 229 27
6.19309520721435547 6.04469442367553711 1.08465540409088135 232 94 190 229 27
6.01337385177612305 6.43700408935546875 0.825973212718963623 232 94 190 229 27
6.00928354263305664 6.41318464279174805 0.825761914253234863 232 94 190 229 27
6.02062511444091797 6.45499992370605469 0.872499942779541016 232 94 190 229 27
6.01694583892822266 6.46499967575073242 0.814999997615814209 232 94 190 229 27
6.01162052154541016 6.41403532028198242 0.864314496517181396 232 94 190 229 27
6.04727840423583984 6.46222400665283203 1.7116084098815918 232 94 190 229 27
6.08668327331542969 6.38041496276855469 1.74851477146148682 232 94 190 229 27
6.03296995162963867 6.48119020462036133 1.70874464511871338 232 94 190 229 27
6.02505397796630859 6.4824213981628418 1.59139144420623779 232 94 190 229 27
6.01681613922119141 6.50891494750976562 1.44780778884887695 232 94 190 229 27
6.09003686904907227 6.33874988555908203 1.6243748664855957 232 94 190 229 27
6.12969589233398438 6.23190689086914062 1.63750004768371582 232 94 190 229 27
6.13608217239379883 6.20933341979980469 1.58499991893768311 232 94 190 229 27
6.08052635192871094 6.36198139190673828 1.51155829429626465 232 94 190 229 27
6.11198806762695312 6.27624988555908203 1.51999998092651367 232 94 190 229 27
6.11905097961425781 6.25749969482421875 1.56874990463256836 232 94 190 229 27
6.04311037063598633 6.46494626998901367 1.58893227577209473 232 94 190 229 27
6.06507110595703125 6.38270282745361328 1.54879093170166016 232 94 190 229 27
6.08313226699829102 6.36374950408935547 1.7024998664855957 232 94 190 229 27
6.15428256988525391 6.161468505859375 1.56421875953674316 232 94 190 229 27
6.16977834701538086 6.12512302398681641 1.62859368324279785 232 94 190 229 27
6.14038944244384766 6.20598411560058594 1.69492578506469727 232 94 190 229 27
6.11795854568481445 6.27437496185302734 1.71499991416931152 232 94 190 229 27
6.18027687072753906 6.09499979019165039 1.56499993801116943 232 94 190 229 27
6.18412923812866211 6.09367847442626953 1.62953090667724609 232 94 190 229 27
6.15604686737060547 6.16387701034545898 1.67750000953674316 232 94 190 229 27
6.03315973281860352 6.48106575012207031 1.67753458023071289 232 94 190 229 27
6.02575445175170898 6.49554252624511719 1.70487892627716064 232 94 190 229 27
6.02141189575195312 6.5149998664855957 1.61687493324279785 232 94 190 229 27
6.02113246917724609 6.49499988555908203 1.58999991416931152 232 94 190 229 27
6.03545475006103516 6.47482681274414062 1.59763658046722412 232 94 190 229 27
6.13384771347045898 6.21354007720947266 1.50975370407104492 232 94 190 229 27
6.09943675994873047 6.31162357330322266 1.55874991416931152 232 94 190 229 27
6.07921743392944336 6.36440896987915039 1.586883544921875 232 94 190 229 27
6.18407583236694336 6.09542989730834961 1.70575320720672607 232 94 190 229 27
6.19485330581665039 6.09694480895996094 1.74968087673187256 232 94 190 229 27
6.16706991195678711 6.14740657806396484 1.71982574462890625 232 94 190 229 27
6.05812215805053711 6.42273855209350586 1.5804746150970459 232 94 190 229 27
6.06752681732177734 6.39855289459228516 1.63124990463256836 232 94 190 229 27
5.91059255599975586 6.72499990463256836 0.210000008344650269 232 94 190 229 27
5.9578857421875 6.58879947662353516 0.179692119359970093 232 94 190 229 27
5.97956562042236328 6.55501270294189453 0.13809695839881897 232 94 190 229 27
5.91336584091186523 6.72849178314208984 0.117184899747371674 232 94 190 229 27
5.90726900100708008 6.74915599822998047 0.0950878560543060303 232 94 190 229 27
5.92118501663208008 6.70086240768432617 0.117374897003173828 232 94 190 229 27
5.95978736877441406 6.59790325164794922 0.434062480926513672 232 94 190 229 27
5.97769355773925781 6.55281734466552734 0.490976572036743164 232 94 190 229 27
5.9965062141418457 6.49249982833862305 0.40625 232 94 190 229 27
5.91250181198120117 6.73499965667724609 0.317499995231628418 232 94 190 229 27
5.92668628692626953 6.68012332916259766 0.263125002384185791 232 94 190 229 27
5.92634725570678711 6.68699359893798828 0.340468764305114746 232 94 190 229 27
5.92837715148925781 6.68364572525024414 0.156227067112922668 232 94 190 229 27
5.9476771354675293 6.61533260345458984 0.208750009536743164 232 94 190 229 27
5.91426992416381836 6.70089626312255859 0.0859776213765144348 232 94 190 229 27
5.93459463119506836 6.66304349899291992 0.0867411196231842041 232 94 190 229 27
5.91668367385864258 6.73499965667724609 0.484999984502792358 232 94 190 229 27
5.91674423217773438 6.72187519073486328 0.401250004768371582 232 94 190 229 27
5.91491603851318359 6.73508834838867188 0.408985704183578491 232 94 190 229 27
5.95829105377197266 6.59074115753173828 0.293320298194885254 232 94 190 229 27
5.95565557479858398 6.64162683486938477 0.106857337057590485 232 94 190 229 27
5.9853515625 6.57731294631958008 0.0870682448148727417 232 94 190 229 27
5.9707493782043457 6.61874151229858398 0.0864717811346054077 232 94 190 229 27
5.92615127563476562 6.69285011291503906 0.431874990463256836 232 94 190 229 27
5.9068455696105957 6.74289464950561523 0.168913990259170532 232 94 190 229 27
5.99034643173217773 6.52375030517578125 0.554374992847442627 232 94 190 229 27
5.95902681350708008 6.61272048950195312 0.578125 232 94 190 229 27
5.95090866088867188 6.68816518783569336 1.18469667434692383 232 94 190 229 27
5.94660758972167969 6.69749975204467773 1.11468756198883057 232 94 190 229 27
5.94842529296875 6.66937875747680664 1.1780855655670166 232 94 190 229 27
5.92751884460449219 6.71499967575073242 0.681874990463256836 232 94 190 229 27
5.98281574249267578 6.58505725860595703 0.963678598403930664 232 94 190 229 27
5.98057174682617188 6.58162403106689453 0.892499983310699463 232 94 190 229 27
5.99602937698364258 6.54556179046630859 0.963278055191040039 232 94 190 229 27
5.95626544952392578 6.61798429489135742 1.03399765491485596 232 94 190 229 27
5.96251964569091797 6.58244895935058594 1.00314366817474365 232 94 190 229 27
5.9682011604309082 6.55516290664672852 1.02404952049255371 232 94 190 229 27
5.96166467666625977 6.64404058456420898 0.987713754177093506 232 94 190 229 27
5.94385528564453125 6.72499990463256836 1.12249994277954102 232 94 190 229 27
5.94528579711914062 6.71486282348632812 1.19349241256713867 232 94 190 229 27
5.95097541809082031 6.71446323394775391 1.21302616596221924 232 94 190 229 27
5.96007442474365234 6.6824955940246582 1.20450544357299805 232 94 190 229 27
5.99102306365966797 6.66691446304321289 1.21485507488250732 232 94 190 229 27
5.95719099044799805 6.65272665023803711 1.19108366966247559 232 94 190 229 27
5.94628715515136719 6.67480897903442383 1.12250125408172607 232 94 190 229 27
5.94765377044677734 6.68400001525878906 1.06976675987243652 232 94 190 229 27
5.94710111618041992 6.66080617904663086 1.0736469030380249 232 94 190 229 27
5.94421243667602539 6.66195869445800781 1.05196070671081543 232 94 190 229 27
5.98400783538818359 6.52701663970947266 1.03813529014587402 232 94 190 229 27
5.94017505645751953 6.66717004776000977 0.582578122615814209 232 94 190 229 27
5.92663097381591797 6.70384407043457031 0.542890608310699463 232 94 190 229 27
5.94592523574829102 6.68997097015380859 1.02905392646789551 232 94 190 229 27
5.94122552871704102 6.69749975204467773 0.927500009536743164 232 94 190 229 27
5.9506983757019043 6.64044523239135742 1.01198506355285645 232 94 190 229 27
5.93861532211303711 6.71499967575073242 1.01250004768371582 232 94 190 229 27
5.94152164459228516 6.6875 0.845000028610229492 232 94 190 229 27
5.93708992004394531 6.72499990463256836 0.982812464237213135 232 94 190 229 27
5.91853523254394531 6.72499990463256836 0.505625009536743164 232 94 190 229 27
5.92316818237304688 6.72499990463256836 0.6171875 232 94 190 229 27
5.93211507797241211 6.70495128631591797 0.73281252384185791 232 94 190 229 27
5.93318367004394531 6.71499967575073242 0.851249933242797852 232 94 190 229 27
5.95238065719604492 6.6401066780090332 0.678749978542327881 232 94 190 229 27
6.004180908203125 6.59719753265380859 1.18080389499664307 232 94 190 229 27
6.0308995246887207 6.57274150848388672 1.15483582019805908 232 94 190 229 27
6.02673768997192383 6.54941225051879883 1.19817066192626953 232 94 190 229 27
6.00067949295043945 6.58414077758789062 1.20375347137451172 232 94 190 229 27
5.99572420120239258 6.60721778869628906 1.20043015480041504 232 94 190 229 27
6.02885770797729492 6.52972888946533203 1.03944480419158936 232 94 190 229 27
5.97298908233642578 6.58274412155151367 0.713437438011169434 232 94 190 229 27
6.00504732131958008 6.59792995452880859 1.05985724925994873 232 94 190 229 27
6.00856113433837891 6.59535884857177734 1.11105334758758545 232 94 190 229 27
5.9843134880065918 6.61991977691650391 1.14007806777954102 232 94 190 229 27
6.03096818923950195 6.56782770156860352 1.05804789066314697 232 94 190 229 27
5.98151540756225586 6.63538551330566406 1.20532560348510742 232 94 190 229 27
5.99179697036743164 6.60919475555419922 1.06964540481567383 232 94 190 229 27
5.96327543258666992 6.59280729293823242 1.03586983680725098 232 94 190 229 27
5.99062204360961914 6.58814620971679688 1.04132974147796631 232 94 190 229 27
5.95347118377685547 6.64423513412475586 1.05685365200042725 232 94 190 229 27
5.98168087005615234 6.5604701042175293 0.75625002384185791 232 94 190 229 27
5.92759084701538086 6.72499990463256836 0.739687442779541016 232 94 190 229 27
5.95172786712646484 6.515716552734375 1.23122727870941162 232 94 190 229 27
5.96390867233276367 6.51525306701660156 1.34794378280639648 232 94 190 229 27
5.97350263595581055 6.52578639984130859 1.39681065082550049 232 94 190 229 27
5.99299907684326172 6.54420709609985352 1.47170174121856689 232 94 190 229 27
6.00994205474853516 6.51675891876220703 1.44923889636993408 232 94 190 229 27
6.01549386978149414 6.52494668960571289 1.48549556732177734 232 94 190 229 27
6.00852537155151367 6.51987409591674805 1.38112831115722656 232 94 190 229 27
6.00575637817382812 6.51372957229614258 1.41170334815979004 232 94 190 229 27
5.9571990966796875 6.52082586288452148 1.21368885040283203 232 94 190 229 27
5.99462270736694336 6.53621816635131836 1.4851076602935791 232 94 190 229 27
6.0224461555480957 6.52633762359619141 1.71036946773529053 232 94 190 229 27
6.1261744499206543 6.47497034072875977 1.78547632694244385 232 94 190 229 27
6.15246295928955078 6.53514575958251953 1.7968674898147583 232 94 190 229 27
6.07405471801757812 6.484405517578125 1.76796579360961914 232 94 190 229 27
6.10820198059082031 6.51571989059448242 1.78423070907592773 232 94 190 229 27
6.12961149215698242 6.5084071159362793 1.75967717170715332 232 94 190 229 27
6.00567436218261719 6.53583669662475586 1.58890831470489502 232 94 190 229 27
6.01808357238769531 6.52916955947875977 1.62612342834472656 232 94 190 229 27
6.00156641006469727 6.54414558410644531 1.62584543228149414 232 94 190 229 27
5.96737813949584961 6.8987736701965332 1.44861030578613281 232 94 190 229 27
5.95946979522705078 6.675323486328125 1.43374991416931152 232 94 190 229 27
5.99575710296630859 6.57473659515380859 1.45446896553039551 232 94 190 229 27
5.97338151931762695 6.89294910430908203 1.40529477596282959 232 94 190 229 27
6.00290918350219727 6.60714149475097656 1.21423399448394775 232 94 190 229 27
5.96837091445922852 6.55764341354370117 1.23818540573120117 232 94 190 229 27
5.97366189956665039 6.55726766586303711 1.21437561511993408 232 94 190 229 27
5.98807573318481445 6.55499982833862305 1.42499995231628418 232 94 190 229 27
5.97694635391235352 6.56012725830078125 1.34573912620544434 232 94 190 229 27
5.97844648361206055 6.87990236282348633 1.48787140846252441 232 94 190 229 27
6.15614461898803711 6.67466020584106445 1.8311542272567749 232 94 190 229 27
6.14599800109863281 6.66292285919189453 1.85050535202026367 232 94 190 229 27
6.01430654525756836 6.58478212356567383 1.75509011745452881 232 94 190 229 27
6.02256488800048828 6.60885524749755859 1.76735246181488037 232 94 190 229 27
6.05129241943359375 6.62679243087768555 1.78812742233276367 232 94 190 229 27
6.05167150497436523 6.54678916931152344 1.76779496669769287 232 94 190 229 27
5.94404745101928711 6.74749946594238281 1.71249985694885254 232 94 190 229 27
5.92380714416503906 6.81273555755615234 1.72902953624725342 232 94 190 229 27
5.93836355209350586 6.77505683898925781 1.74197220802307129 232 94 190 229 27
5.9837040901184082 6.86958694458007812 1.67462098598480225 232 94 190 229 27
5.99942541122436523 6.88127851486206055 1.76000845432281494 232 94 190 229 27
5.99898099899291992 6.55499982833862305 1.62624990940093994 232 94 190 229 27
5.96554994583129883 6.91911792755126953 1.6817774772644043 232 94 190 229 27
5.96603727340698242 6.90576601028442383 1.70142269134521484 232 94 190 229 27
5.97626876831054688 6.8850855827331543 1.73219311237335205 232 94 190 229 27
5.95436954498291016 6.70651054382324219 1.61874997615814209 232 94 190 229 27
5.93509531021118164 6.75624990463256836 1.55999994277954102 232 94 190 229 27
5.97037982940673828 6.67283296585083008 1.70999991893768311 232 94 190 229 27
5.96313571929931641 6.70440053939819336 1.74013292789459229 232 94 190 229 27
5.98829746246337891 6.87695217132568359 1.55373287200927734 232 94 190 229 27
5.96557378768920898 6.92267894744873047 1.52188563346862793 232 94 190 229 27
5.98318195343017578 6.88235235214233398 1.58115386962890625 232 94 190 229 27
5.96518135070800781 6.92013978958129883 1.55743837356567383 232 94 190 229 27
5.96528911590576172 6.9287571907043457 1.59824669361114502 232 94 190 229 27
5.96765470504760742 6.90694761276245117 1.50092136859893799 232 94 190 229 27
5.97489452362060547 6.83606147766113281 1.79047369956970215 232 94 190 229 27
5.94791984558105469 6.83536195755004883 1.78410816192626953 232 94 190 229 27
5.98431587219238281 6.87678766250610352 1.79213511943817139 232 94 190 229 27
5.94915437698364258 6.77899026870727539 1.76254820823669434 232 94 190 229 27
5.96859169006347656 6.73429012298583984 1.76526749134063721 232 94 190 229 27
5.97119379043579102 6.69704341888427734 1.7539820671081543 232 94 190 229 27
5.96391868591308594 6.77617025375366211 1.76968252658843994 232 94 190 229 27
6.08916807174682617 6.79794645309448242 1.8331456184387207 232 94 190 229 27
6.15217685699462891 6.71323919296264648 1.8416132926940918 232 94 190 229 27
6.10667324066162109 6.71173858642578125 1.85482275485992432 232 94 190 229 27
6.12677574157714844 6.72676372528076172 1.83481800556182861 232 94 190 229 27
6.09412384033203125 6.76499795913696289 1.83503484725952148 232 94 190 229 27
6.11156272888183594 6.76998090744018555 1.83463490009307861 232 94 190 229 27
6.13134384155273438 6.77423620223999023 1.84447371959686279 232 94 190 229 27
6.11783075332641602 6.80571126937866211 1.84050107002258301 232 94 190 229 27
5.98864030838012695 6.60500001907348633 1.49500000476837158 232 94 190 229 27
5.96140480041503906 6.68394851684570312 1.55171871185302734 232 94 190 229 27
5.98274755477905273 6.70615196228027344 1.76484882831573486 232 94 190 229 27
5.98357105255126953 6.65846490859985352 1.75459766387939453 232 94 190 229 27
5.98927736282348633 6.67211246490478516 1.76512658596038818 232 94 190 229 27
6.01143026351928711 6.71786594390869141 1.78175497055053711 232 94 190 229 27
6.05658102035522461 6.63780546188354492 1.79753899574279785 232 94 190 229 27
6.06643390655517578 6.64854812622070312 1.83081197738647461 232 94 190 229 27
6.04868030548095703 6.663482666015625 1.7936016321182251 232 94 190 229 27
6.03116798400878906 6.66845178604125977 1.78159117698669434 232 94 190 229 27
6.05862092971801758 6.67984104156494141 1.82053697109222412 232 94 190 229 27
6.00426673889160156 6.54761791229248047 1.71202170848846436 232 94 190 229 27
6.0128936767578125 6.55456352233886719 1.75127458572387695 232 94 190 229 27
5.96610069274902344 6.91665887832641602 1.76062774658203125 232 94 190 229 27
5.96548748016357422 6.88920402526855469 1.78249037265777588 232 94 190 229 27
5.91611576080322266 6.81502485275268555 1.59654521942138672 232 94 190 229 27
5.98863124847412109 6.61124992370605469 1.60500001907348633 232 94 190 229 27
6.08818197250366211 6.5499873161315918 1.78526663780212402 232 94 190 229 27
6.15456819534301758 6.53968191146850586 1.78477895259857178 232 94 190 229 27
5.97983694076538086 6.8881230354309082 1.62684714794158936 232 94 190 229 27
5.9334869384765625 6.76850032806396484 1.64218759536743164 232 94 190 229 27
5.96214580535888672 6.69017362594604492 1.65976560115814209 232 94 190 229 27
5.99490594863891602 6.59447002410888672 1.64374995231628418 232 94 190 229 27
6.10780048370361328 6.65367746353149414 1.83934104442596436 232 94 190 229 27
6.08189582824707031 6.68197870254516602 1.84536194801330566 232 94 190 229 27
6.09210872650146484 6.71817493438720703 1.84810304641723633 232 94 190 229 27
6.135406494140625 6.69995975494384766 1.85994637012481689 232 94 190 229 27
5.99655866622924805 6.5774998664855957 1.59656238555908203 232 94 190 229 27
6.06815481185913086 6.82664728164672852 1.84462380409240723 232 94 190 229 27
6.11636972427368164 6.82310056686401367 1.84833860397338867 232 94 190 229 27
5.99395895004272461 6.58991670608520508 1.57562494277954102 232 94 190 229 27
5.99080514907836914 6.59999990463256836 1.53499996662139893 232 94 190 229 27
5.97499990463256836 6.64499998092651367 1.57499992847442627 232 94 190 229 27
5.99468278884887695 6.57499980926513672 1.50999999046325684 232 94 190 229 27
6.10941791534423828 6.56141471862792969 1.79516661167144775 232 94 190 229 27
6.08969783782958984 6.63104438781738281 1.81991088390350342 232 94 190 229 27
6.09777498245239258 6.57348489761352539 1.77004575729370117 232 94 190 229 27
6.14516496658325195 6.54434490203857422 1.77373993396759033 232 94 190 229 27
6.0718073844909668 6.57005071640014648 1.77955853939056396 232 94 190 229 27
6.10725498199462891 6.56854772567749023 1.78141748905181885 232 94 190 229 27
6.08483791351318359 6.6178288459777832 1.79116380214691162 232 94 190 229 27
6.11382198333740234 6.57066202163696289 1.80603325366973877 232 94 190 229 27
6.14716196060180664 6.6009368896484375 1.825042724609375 232 94 190 229 27
6.10590696334838867 6.60549211502075195 1.82279610633850098 232 94 190 229 27
6.12416744232177734 6.63313770294189453 1.83883523941040039 232 94 190 229 27
5.99913930892944336 6.59346294403076172 1.71373903751373291 232 94 190 229 27
6.00344514846801758 6.5959467887878418 1.74231696128845215 232 94 190 229 27
6.0511016845703125 6.74931192398071289 1.80295109748840332 232 94 190 229 27
6.0023961067199707 6.76216983795166016 1.78213322162628174 232 94 190 229 27
6.06579732894897461 6.73263454437255859 1.81604278087615967 232 94 190 229 27
6.02423667907714844 6.75924110412597656 1.78678262233734131 232 94 190 229 27
6.03607511520385742 6.77295589447021484 1.79361605644226074 232 94 190 229 27
6.04767131805419922 6.70359659194946289 1.79177498817443848 232 94 190 229 27
6.03859615325927734 6.75194931030273438 1.78149235248565674 232 94 190 229 27
6.07538938522338867 6.84115409851074219 1.85234344005584717 232 94 190 229 27
6.03023290634155273 6.79260921478271484 1.78175842761993408 232 94 190 229 27
6.05556106567382812 6.83209896087646484 1.82549846172332764 232 94 190 229 27
6.01411914825439453 6.82132339477539062 1.77352476119995117 232 94 190 229 27
6.00193691253662109 6.81862735748291016 1.7867356538772583 232 94 190 229 27
6.03691291809082031 6.84674882888793945 1.77557027339935303 232 94 190 229 27
6.00970888137817383 6.87457036972045898 1.77149403095245361 232 94 190 229 27
6.00154352188110352 6.86145353317260742 1.79106724262237549 232 94 190 229 27
6.04975557327270508 6.83895301818847656 1.80508363246917725 232 94 190 229 27
6.04803657531738281 6.79707956314086914 1.82496798038482666 232 94 190 229 27
6.24353694915771484 6.16578292846679688 1.79138314723968506 232 94 190 229 27
6.28136825561523438 6.18906545639038086 1.8109588623046875 232 94 190 229 27
6.33990287780761719 6.20252084732055664 1.80827033519744873 232 94 190 229 27
6.31268596649169922 6.17229938507080078 1.7806466817855835 232 94 190 229 27
6.32189321517944336 6.14979839324951172 1.80711233615875244 232 94 190 229 27
6.31006813049316406 6.29152917861938477 1.88269996643066406 232 94 190 229 27
6.23404550552368164 6.47055912017822266 1.8301856517791748 232 94 190 229 27
6.02927923202514648 6.5321965217590332 1.7509082555770874 232 94 190 229 27
6.33466863632202148 6.23358631134033203 1.87507164478302002 232 94 190 229 27
6.34968948364257812 6.20706033706665039 1.86509156227111816 232 94 190 229 27
6.14060211181640625 6.44733095169067383 1.78369605541229248 232 94 190 229 27
6.12531661987304688 6.43105316162109375 1.7812422513961792 232 94 190 229 27
6.1057124137878418 6.39068460464477539 1.76473486423492432 232 94 190 229 27
6.08059406280517578 6.43391752243041992 1.76500236988067627 232 94 190 229 27
6.07479238510131836 6.41888952255249023 1.75606691837310791 232 94 190 229 27
6.13684177398681641 6.29088115692138672 1.76339173316955566 232 94 190 229 27
6.11662483215332031 6.30479001998901367 1.75167787075042725 232 94 190 229 27
6.23671674728393555 6.37941169738769531 1.84498906135559082 232 94 190 229 27
6.25005149841308594 6.30792713165283203 1.84714293479919434 232 94 190 229 27
6.26434850692749023 6.33041477203369141 1.85831058025360107 232 94 190 229 27
6.22349166870117188 6.1200408935546875 1.79191029071807861 232 94 190 229 27
6.28251266479492188 6.15322780609130859 1.79559850692749023 232 94 190 229 27
6.26366472244262695 6.14726114273071289 1.80739033222198486 232 94 190 229 27
6.05455732345581055 6.47336435317993164 1.75027108192443848 232 94 190 229 27
6.24581527709960938 6.44387292861938477 1.83111107349395752 232 94 190 229 27
6.27302885055541992 6.4374237060546875 1.85854291915893555 232 94 190 229 27
6.24354696273803711 6.41504716873168945 1.85401272773742676 232 94 190 229 27
6.27654027938842773 6.4192352294921875 1.87398266792297363 232 94 190 229 27
6.03296804428100586 6.49952030181884766 1.74649882316589355 232 94 190 229 27
6.23769664764404297 6.25327157974243164 1.7804335355758667 232 94 190 229 27
6.22693395614624023 6.23179197311401367 1.78234696388244629 232 94 190 229 27
6.17009735107421875 6.23229789733886719 1.76669096946716309 232 94 190 229 27
6.23178243637084961 6.2476649284362793 1.76930558681488037 232 94 190 229 27
6.20842361450195312 6.3107457160949707 1.75879848003387451 232 94 190 229 27
6.20774173736572266 6.26958751678466797 1.78516829013824463 232 94 190 229 27
6.22266292572021484 6.27879047393798828 1.76236319541931152 232 94 190 229 27
6.155426025390625 6.46223688125610352 1.77597534656524658 232 94 190 229 27
6.16051816940307617 6.50321435928344727 1.79439365863800049 232 94 190 229 27
6.18365669250488281 6.54118776321411133 1.81814849376678467 232 94 190 229 27
6.1741175651550293 6.491546630859375 1.81026148796081543 232 94 190 229 27
6.15672206878662109 6.50933504104614258 1.77512276172637939 232 94 190 229 27
6.19885540008544922 6.14560413360595703 1.76722025871276855 232 94 190 229 27
6.1918034553527832 6.18960905075073242 1.77145838737487793 232 94 190 229 27
6.16115951538085938 6.19619178771972656 1.75346076488494873 232 94 190 229 27
6.24023914337158203 6.19242477416992188 1.78795278072357178 232 94 190 229 27
6.2025141716003418 6.23307371139526367 1.78003621101379395 232 94 190 229 27
6.22334718704223633 6.35833024978637695 1.82999217510223389 232 94 190 229 27
6.21594667434692383 6.35012578964233398 1.79453253746032715 232 94 190 229 27
6.17481851577758789 6.36872100830078125 1.81331586837768555 232 94 190 229 27
6.19032001495361328 6.3634953498840332 1.82489216327667236 232 94 190 229 27
6.18503093719482422 6.3859553337097168 1.83019506931304932 232 94 190 229 27
6.16649770736694336 6.36249446868896484 1.79512715339660645 232 94 190 229 27
6.17675876617431641 6.33581018447875977 1.78390371799468994 232 94 190 229 27
6.20087099075317383 6.35578823089599609 1.7862391471862793 232 94 190 229 27
6.20245599746704102 6.33132028579711914 1.76505935192108154 232 94 190 229 27
6.15233039855957031 6.32912158966064453 1.77807509899139404 232 94 190 229 27
6.15362882614135742 6.39833498001098633 1.79080891609191895 232 94 190 229 27
6.15505266189575195 6.42969894409179688 1.79314768314361572 232 94 190 229 27
6.15412473678588867 6.45170497894287109 1.79438674449920654 232 94 190 229 27
6.2055516242980957 6.48995637893676758 1.83866512775421143 232 94 190 229 27
6.16967439651489258 6.40776252746582031 1.8151850700378418 232 94 190 229 27
6.14341592788696289 6.47303867340087891 1.76391148567199707 232 94 190 229 27
6.12842369079589844 6.27335882186889648 1.75360429286956787 232 94 190 229 27
6.28839921951293945 6.19201803207397461 1.83873403072357178 232 94 190 229 27
6.27093362808227539 6.20514869689941406 1.83478522300720215 232 94 190 229 27
6.26602077484130859 6.17119312286376953 1.78762280941009521 232 94 190 229 27
6.24822616577148438 6.20850753784179688 1.78537046909332275 232 94 190 229 27
6.33756685256958008 6.16471004486083984 1.80504703521728516 232 94 190 229 27
6.32858610153198242 6.18558263778686523 1.7865145206451416 232 94 190 229 27
6.2695155143737793 6.19240474700927734 1.81189358234405518 232 94 190 229 27
6.20648527145385742 6.3907170295715332 1.8420565128326416 232 94 190 229 27
6.22524213790893555 6.45846223831176758 1.84592938423156738 232 94 190 229 27
6.21910285949707031 6.44006967544555664 1.85170853137969971 232 94 190 229 27
6.2155909538269043 6.47685432434082031 1.84581959247589111 232 94 190 229 27
6.27173185348510742 6.24875020980834961 1.85048234462738037 232 94 190 229 27
6.29955387115478516 6.21632194519042969 1.85630536079406738 232 94 190 229 27
6.20685386657714844 6.54079771041870117 1.84948062896728516 232 94 190 229 27
6.18466567993164062 6.13134622573852539 1.75439751148223877 232 94 190 229 27
6.24689483642578125 6.27522087097167969 1.82995390892028809 232 94 190 229 27
6.2590184211730957 6.24157905578613281 1.83653640747070312 232 94 190 229 27
6.24893760681152344 6.23549556732177734 1.80527651309967041 232 94 190 229 27
6.17011499404907227 6.69817829132080078 1.84839189052581787 232 94 190 229 27
6.17363548278808594 6.67511701583862305 1.85742509365081787 232 94 190 229 27
6.17096519470214844 6.62361860275268555 1.84147119522094727 232 94 190 229 27
6.154327392578125 6.7525944709777832 1.85960912704467773 232 94 190 229 27
6.37577152252197266 6.16536188125610352 1.82120740413665771 232 94 190 229 27
6.38410425186157227 6.16550111770629883 1.83996105194091797 232 94 190 229 27
6.49905300140380859 6.1921076774597168 1.80249452590942383 232 94 190 229 27
6.54389858245849609 6.20751476287841797 1.85859370231628418 232 94 190 229 27
6.42749977111816406 6.17149448394775391 1.83124995231628418 232 94 190 229 27
6.45624971389770508 6.1814875602722168 1.95624995231628418 232 94 190 229 27
6.39838361740112305 6.16451215744018555 1.80986702442169189 232 94 190 229 27
6.41772317886352539 6.170989990234375 1.95156240463256836 232 94 190 229 27
6.39499950408935547 6.16759157180786133 1.95499992370605469 232 94 190 229 27
6.38795948028564453 6.16791868209838867 2.24433994293212891 232 94 190 229 27
6.44414997100830078 6.17705631256103516 2.26264381408691406 232 94 190 229 27
6.57768821716308594 6.21553134918212891 1.80349612236022949 232 94 190 229 27
6.39499998092651367 6.16847705841064453 2.14374971389770508 232 94 190 229 27
6.42282485961914062 6.16845035552978516 1.79517829418182373 232 94 190 229 27
6.53507423400878906 6.20530605316162109 2.13499975204467773 232 94 190 229 27
6.48430442810058594 6.18971824645996094 2.15124988555908203 232 94 190 229 27
6.42249965667724609 6.17114734649658203 2.00124979019165039 232 94 190 229 27
6.39999961853027344 6.1678009033203125 2.01796865463256836 232 94 190 229 27
6.41125011444091797 6.17011642456054688 2.12328124046325684 232 94 190 229 27
6.43428707122802734 6.17508316040039062 2.09749984741210938 232 94 190 229 27
6.50397348403930664 6.1955108642578125 2.06789064407348633 232 94 190 229 27
6.52689552307128906 6.20181798934936523 2.01796865463256836 232 94 190 229 27
6.38499975204467773 6.16984891891479492 2.11187505722045898 232 94 190 229 27
6.38499975204467773 6.16865062713623047 2.00312495231628418 232 94 190 229 27
6.42961311340332031 6.17435359954833984 2.21000003814697266 232 94 190 229 27
6.41048574447631836 6.16961193084716797 2.25729918479919434 232 94 190 229 27
6.69580173492431641 6.25325107574462891 2.12007808685302734 232 94 190 229 27
6.75157642364501953 6.27054548263549805 2.05562496185302734 232 94 190 229 27
6.72249984741210938 6.26302099227905273 1.83999991416931152 232 94 190 229 27
6.78307151794433594 6.28307867050170898 1.81611943244934082 232 94 190 229 27
6.76800870895385742 6.28224802017211914 1.78879475593566895 232 94 190 229 27
6.95019626617431641 6.32944297790527344 2.0945589542388916 232 94 190 229 27
6.91672611236572266 6.32185029983520508 2.08968234062194824 232 94 190 229 27
6.91554164886474609 6.32102012634277344 2.14406251907348633 232 94 190 229 27
6.58874988555908203 6.22142362594604492 2.1875 232 94 190 229 27
6.91341829299926758 6.32385015487670898 1.82006192207336426 232 94 190 229 27
6.94690656661987305 6.32834148406982422 1.83303415775299072 232 94 190 229 27
6.94314336776733398 6.33853387832641602 1.78944230079650879 232 94 190 229 27
6.87884330749511719 6.33021450042724609 1.78938329219818115 232 94 190 229 27
6.95000028610229492 6.33113288879394531 1.81396961212158203 232 94 190 229 27
6.69954252243041992 6.25563859939575195 1.94140625 232 94 190 229 27
6.92302131652832031 6.32533740997314453 1.88433051109313965 232 94 190 229 27
6.75499963760375977 6.27074098587036133 2.09999990463256836 232 94 190 229 27
6.63000011444091797 6.23314046859741211 1.82499992847442627 232 94 190 229 27
6.52958059310913086 6.20364952087402344 2.24015617370605469 232 94 190 229 27
6.81500005722045898 6.29325199127197266 1.93999993801116943 232 94 190 229 27
6.60750007629394531 6.22665786743164062 1.91062498092651367 232 94 190 229 27
6.68427848815917969 6.24772882461547852 1.79779255390167236 232 94 190 229 27
6.71555471420288086 6.25812196731567383 1.78750813007354736 232 94 190 229 27
6.64687490463256836 6.23902130126953125 1.86437487602233887 232 94 190 229 27
6.92093753814697266 6.32479238510131836 1.97531247138977051 232 94 190 229 27
6.94875049591064453 6.32920169830322266 1.91704320907592773 232 94 190 229 27
6.60660648345947266 6.22607612609863281 2.09601545333862305 232 94 190 229 27
6.75742149353027344 6.27383518218994141 1.89078128337860107 232 94 190 229 27
6.89170742034912109 6.31711959838867188 1.9136052131652832 232 94 190 229 27
6.89067554473876953 6.31652259826660156 1.85249996185302734 232 94 190 229 27
6.66249990463256836 6.24209403991699219 2.25 232 94 190 229 27
6.71413230895996094 6.25829601287841797 2.25406241416931152 232 94 190 229 27
6.85407209396362305 6.30655527114868164 1.81836986541748047 232 94 190 229 27
6.83594512939453125 6.31387042999267578 1.793235182762146 232 94 190 229 27
6.941314697265625 6.32872581481933594 2.22625184059143066 232 94 190 229 27
6.95249319076538086 6.3281865119934082 2.15658688545227051 232 94 190 229 27
6.64460086822509766 6.23756885528564453 2.03499984741210938 232 94 190 229 27
6.67999982833862305 6.24979686737060547 2.00249981880187988 232 94 190 229 27
6.87206363677978516 6.30844879150390625 2.21187496185302734 232 94 190 229 27
6.86249971389770508 6.30554437637329102 2.07499980926513672 232 94 190 229 27
6.82695436477661133 6.29415464401245117 2.11562490463256836 232 94 190 229 27
6.77221536636352539 6.27665901184082031 2.16718745231628418 232 94 190 229 27
6.66617202758789062 6.24414205551147461 2.17875003814697266 232 94 190 229 27
6.86312484741210938 6.30769443511962891 1.97374987602233887 232 94 190 229 27
6.95715236663818359 6.3311619758605957 2.01515913009643555 232 94 190 229 27
6.78174209594726562 6.28130817413330078 2.0306248664855957 232 94 190 229 27
6.84231948852539062 6.30133533477783203 2.02624988555908203 232 94 190 229 27
6.77374935150146484 6.27800989151000977 2.22499990463256836 232 94 190 229 27
6.92720556259155273 6.32755184173583984 2.04557037353515625 232 94 190 229 27
6.55074834823608398 6.21024465560913086 1.98124992847442627 232 94 190 229 27
6.61499977111816406 6.23006820678710938 1.95499992370605469 232 94 190 229 27
5.91486310958862305 6.75151729583740234 0.130452379584312439 232 94 190 229 27
5.96499967575073242 6.7615203857421875 0.327499985694885254 232 94 190 229 27
5.91449451446533203 6.74551630020141602 0.298124998807907104 232 94 190 229 27
5.93401718139648438 6.75283527374267578 0.394687473773956299 232 94 190 229 27
5.94499969482421875 6.75716972351074219 0.349999994039535522 232 94 190 229 27
5.93499994277954102 6.7588963508605957 0.242499992251396179 232 94 190 229 27
5.92461967468261719 6.75375080108642578 0.280624985694885254 232 94 190 229 27
5.92500448226928711 6.74446535110473633 0.505625009536743164 232 94 190 229 27
5.94499969482421875 6.75195407867431641 0.534999966621398926 232 94 190 229 27
5.94493436813354492 6.75571346282958984 0.421249985694885254 232 94 190 229 27
5.96499967575073242 6.75748825073242188 0.456250011920928955 232 94 190 229 27
5.97499990463256836 6.75875473022460938 0.496249973773956299 232 94 190 229 27
5.92095565795898438 6.74567985534667969 0.411764293909072876 232 94 190 229 27
5.91416120529174805 6.75593471527099609 0.158743992447853088 232 94 190 229 27
5.95705890655517578 6.76423358917236328 0.211250007152557373 232 94 190 229 27
5.95475006103515625 6.76655864715576172 0.166140541434288025 232 94 190 229 27
5.97499990463256836 6.73960161209106445 1.16562497615814209 232 94 190 229 27
5.96000003814697266 6.73659229278564453 1.11187493801116943 232 94 190 229 27
5.96499967575073242 6.74277877807617188 1.00874996185302734 232 94 190 229 27
5.94490909576416016 6.73419618606567383 0.994144320487976074 232 94 190 229 27
5.9361567497253418 6.73499965667724609 0.841250002384185791 232 94 190 229 27
5.9600825309753418 6.74605464935302734 0.859062492847442627 232 94 190 229 27
5.94999980926513672 6.74039554595947266 0.896874964237213135 232 94 190 229 27
5.92546653747558594 6.73512554168701172 0.651743531227111816 232 94 190 229 27
5.95213794708251953 6.72672128677368164 1.21534097194671631 232 94 190 229 27
5.95499992370605469 6.75151824951171875 0.610000014305114746 232 94 190 229 27
5.93999958038330078 6.74579811096191406 0.629374980926513672 232 94 190 229 27
5.93499994277954102 6.74248313903808594 0.675000011920928955 232 94 190 229 27
5.98510646820068359 6.74816274642944336 0.91874992847442627 232 94 190 229 27
5.98555755615234375 6.75372600555419922 0.753749966621398926 232 94 190 229 27
5.96999979019165039 6.75037765502929688 0.772812485694885254 232 94 190 229 27
5.97499990463256836 6.75439929962158203 0.60000002384185791 232 94 190 229 27
5.99499988555908203 6.74463367462158203 1.09249997138977051 232 94 190 229 27
6.11322689056396484 6.8331451416015625 0.143859103322029114 232 94 190 229 27
6.1369476318359375 6.84194326400756836 0.109543070197105408 232 94 190 229 27
6.10789203643798828 6.83314752578735352 0.0936450883746147156 232 94 190 229 27
6.09766864776611328 6.83960342407226562 0.0839000791311264038 232 94 190 229 27
6.14379644393920898 6.84909963607788086 0.0848748907446861267 232 94 190 229 27
5.93529081344604492 6.76751470565795898 0.113212689757347107 232 94 190 229 27
5.9756169319152832 6.7850193977355957 0.113528817892074585 232 94 190 229 27
6.10502052307128906 6.8151850700378418 0.474833488464355469 232 94 190 229 27
6.11208915710449219 6.81729316711425781 0.555618941783905029 232 94 190 229 27
6.03582191467285156 6.79395008087158203 0.324374973773956299 232 94 190 229 27
6.02119064331054688 6.79938888549804688 0.101778924465179443 232 94 190 229 27
5.98490142822265625 6.77663612365722656 0.28125 232 94 190 229 27
5.99171161651611328 6.77501440048217773 0.361562490463256836 232 94 190 229 27
5.99249982833862305 6.77019882202148438 0.470624983310699463 232 94 190 229 27
6.07499980926513672 6.81906747817993164 0.155000001192092896 232 94 190 229 27
6.05580902099609375 6.80904054641723633 0.203749999403953552 232 94 190 229 27
6.09999990463256836 6.81798458099365234 0.361249983310699463 232 94 190 229 27
5.97519302368164062 6.76469612121582031 0.349999994039535522 232 94 190 229 27
5.98651885986328125 6.7843317985534668 0.162499994039535522 232 94 190 229 27
6.06054353713989258 6.80214214324951172 0.375937491655349731 232 94 190 229 27
5.99499988555908203 6.76768112182617188 0.564999938011169434 232 94 190 229 27
6.05291366577148438 6.8029937744140625 0.27499997615814209 232 94 190 229 27
6.11037349700927734 6.82499980926513672 0.358749985694885254 232 94 190 229 27
6.09499979019165039 6.81737422943115234 0.310000002384185791 232 94 190 229 27
6.00312471389770508 6.787261962890625 0.227499991655349731 232 94 190 229 27
5.96610784530639648 6.765350341796875 0.258750021457672119 232 94 190 229 27
5.96999979019165039 6.77180290222167969 0.197499990463256836 232 94 190 229 27
6.08397150039672852 6.80714702606201172 0.452499985694885254 232 94 190 229 27
6.09855031967163086 6.82540988922119141 0.178938016295433044 232 94 190 229 27
6.10569429397583008 6.82481575012207031 0.237977653741836548 232 94 190 229 27
6.54915142059326172 7.1718745231628418 1.19957149028778076 232 94 190 229 27
6.50155401229858398 7.17446422576904297 1.22499310970306396 232 94 190 229 27
6.53072786331176758 7.20235490798950195 1.21755337715148926 232 94 190 229 27
6.53971004486083984 7.17386436462402344 1.231467604637146 232 94 190 229 27
6.15843009948730469 6.79661226272583008 1.21036434173583984 232 94 190 229 27
6.21778297424316406 6.81377315521240234 1.21087729930877686 232 94 190 229 27
6.20043420791625977 6.79877614974975586 1.23815655708312988 232 94 190 229 27
6.16418838500976562 6.78173589706420898 1.24108397960662842 232 94 190 229 27
6.01986932754516602 6.76565790176391602 0.924062490463256836 232 94 190 229 27
6.32941770553588867 6.88751602172851562 1.0748436450958252 232 94 190 229 27
6.04398679733276367 6.77189493179321289 1.19986450672149658 232 94 190 229 27
6.06839227676391602 6.76836061477661133 1.21210432052612305 232 94 190 229 27
6.01616811752319336 6.75811290740966797 1.20805740356445312 232 94 190 229 27
5.99895858764648438 6.74818849563598633 1.2134023904800415 232 94 190 229 27
6.06459665298461914 6.78372001647949219 0.93124997615814209 232 94 190 229 27
6.05674171447753906 6.77698230743408203 1.04023432731628418 232 94 190 229 27
6.52971839904785156 7.23914527893066406 1.23317015171051025 232 94 190 229 27
6.52576017379760742 7.26946449279785156 1.23561263084411621 232 94 190 229 27
6.5101470947265625 7.25522327423095703 1.22497916221618652 232 94 190 229 27
6.532958984375 7.24934244155883789 1.21195602416992188 232 94 190 229 27
6.53437328338623047 7.21861839294433594 1.24465501308441162 232 94 190 229 27
6.52916526794433594 7.24992656707763672 1.24617481231689453 232 94 190 229 27
6.51177263259887695 7.2021336555480957 1.22611939907073975 232 94 190 229 27
6.48941421508789062 7.10349702835083008 1.1099623441696167 232 94 190 229 27
6.49157381057739258 7.08254098892211914 1.11108493804931641 232 94 190 229 27
6.54982805252075195 6.92213869094848633 0.941912591457366943 232 94 190 229 27
6.40331792831420898 6.87281322479248047 1.25454938411712646 232 94 190 229 27
6.35348892211914062 6.85707664489746094 1.25236868858337402 232 94 190 229 27
6.34483146667480469 6.85716962814331055 1.2081981897354126 232 94 190 229 27
6.52497053146362305 7.28202104568481445 1.20403420925140381 232 94 190 229 27
6.53269290924072266 7.28193950653076172 1.23848211765289307 232 94 190 229 27
6.50535202026367188 7.29098796844482422 1.22437691688537598 232 94 190 229 27
5.99483013153076172 6.76524639129638672 0.622500002384185791 232 94 190 229 27
5.99706792831420898 6.74172353744506836 1.20567202568054199 232 94 190 229 27
6.17229747772216797 6.81905937194824219 1.17683172225952148 232 94 190 229 27
6.11514806747436523 6.81513690948486328 0.659999966621398926 232 94 190 229 27
6.11920881271362305 6.81501388549804688 0.731449246406555176 232 94 190 229 27
6.06168127059936523 6.79300975799560547 0.653750002384185791 232 94 190 229 27
6.40262031555175781 6.87605524063110352 1.20440709590911865 232 94 190 229 27
6.49055194854736328 6.90252876281738281 1.24828839302062988 232 94 190 229 27
6.45092916488647461 6.89145994186401367 1.20694458484649658 232 94 190 229 27
6.43950414657592773 6.88576507568359375 1.24513554573059082 232 94 190 229 27
6.46250391006469727 6.89412927627563477 1.26740586757659912 232 94 190 229 27
6.34377193450927734 6.87798929214477539 1.18314921855926514 232 94 190 229 27
6.12357330322265625 6.81522655487060547 0.792600691318511963 232 94 190 229 27
6.11499977111816406 6.80931615829467773 0.834999978542327881 232 94 190 229 27
6.09395980834960938 6.80773782730102539 0.588437497615814209 232 94 190 229 27
6.26226711273193359 6.82597637176513672 1.21680831909179688 232 94 190 229 27
6.2421422004699707 6.83341360092163086 1.19673502445220947 232 94 190 229 27
6.30433416366577148 6.84327936172485352 1.20968830585479736 232 94 190 229 27
6.31379938125610352 6.84302139282226562 1.236794114112854 232 94 190 229 27
6.50312948226928711 7.24234676361083984 1.18424320220947266 232 94 190 229 27
6.06962394714355469 6.7797393798828125 1.167533278465271 232 94 190 229 27
6.11804866790771484 6.80462932586669922 0.980931878089904785 232 94 190 229 27
6.1413273811340332 6.814208984375 0.987279534339904785 232 94 190 229 27
6.35750007629394531 6.89670753479003906 1.13249993324279785 232 94 190 229 27
6.19666957855224609 6.83202838897705078 1.15249991416931152 232 94 190 229 27
6.28364896774291992 6.86290931701660156 1.17066609859466553 232 94 190 229 27
6.11506080627441406 6.80533123016357422 0.940805137157440186 232 94 190 229 27
6.13132429122924805 6.81400966644287109 0.925485014915466309 232 94 190 229 27
6.55557394027709961 6.91255331039428711 1.14774227142333984 232 94 190 229 27
6.48712062835693359 6.91442203521728516 1.14113879203796387 232 94 190 229 27
6.50531721115112305 6.91559934616088867 1.17297756671905518 232 94 190 229 27
6.54053020477294922 6.9182286262512207 1.1709449291229248 232 94 190 229 27
6.55106258392333984 6.92033052444458008 1.12269330024719238 232 94 190 229 27
6.48538112640380859 6.91268539428710938 1.19136953353881836 232 94 190 229 27
6.46479272842407227 6.91791582107543945 1.18393504619598389 232 94 190 229 27
6.51745319366455078 6.9229888916015625 1.02146708965301514 232 94 190 229 27
6.47164344787597656 6.92443561553955078 1.05866074562072754 232 94 190 229 27
6.52930593490600586 6.92150402069091797 1.06026792526245117 232 94 190 229 27
6.52365255355834961 6.92157363891601562 1.13242781162261963 232 94 190 229 27
6.53491544723510742 6.9291539192199707 1.09393095970153809 232 94 190 229 27
6.47506999969482422 7.14759111404418945 1.17338991165161133 232 94 190 229 27
6.41413211822509766 7.14427089691162109 1.16336596012115479 232 94 190 229 27
6.41875171661376953 7.17092084884643555 1.16473686695098877 232 94 190 229 27
6.46210002899169922 7.11335992813110352 1.16102278232574463 232 94 190 229 27
6.39977264404296875 7.14607572555541992 1.15288150310516357 232 94 190 229 27
6.44433689117431641 7.11691141128540039 1.15510225296020508 232 94 190 229 27
5.98499965667724609 6.7596893310546875 0.588437497615814209 232 94 190 229 27
5.99499988555908203 6.74845314025878906 1 232 94 190 229 27
6.09490108489990234 6.79128789901733398 1.06874990463256836 232 94 190 229 27
6.01865625381469727 6.76080226898193359 1.04656243324279785 232 94 190 229 27
5.96712541580200195 6.73549938201904297 1.20509934425354004 232 94 190 229 27
6.24854230880737305 6.85500001907348633 1.10500001907348633 232 94 190 229 27
6.48589897155761719 7.10243463516235352 1.14794003963470459 232 94 190 229 27
