ply
format ascii 1.0
element vertex 120
property float x
property float y
property float z
property uchar red
property uchar green
property uchar blue
property uchar alpha
property uint label
end_header
4.25244617462158203 0.82628554105758667 0.774269402027130127 255 0 246 26 230
4.29366064071655273 0.852603137493133545 0.707547187805175781 255 0 246 26 230
4.2667388916015625 0.852797150611877441 0.723629117012023926 255 0 246 26 230
4.29241752624511719 0.834093987941741943 0.749566853046417236 255 0 246 26 230
4.31981897354125977 0.848662257194519043 0.730548501014709473 255 0 246 26 230
3.92087149620056152 0.711424827575683594 0.90384441614151001 255 0 246 26 230
3.89284205436706543 0.696290910243988037 0.895102560520172119 255 0 246 26 230
4.18886613845825195 1.01461398601531982 0.697258710861206055 255 0 246 26 230
4.21200847625732422 0.995676040649414062 0.677662253379821777 255 0 246 26 230
4.20230579376220703 0.955946266651153564 0.685802817344665527 255 0 246 26 230
4.1830296516418457 0.999920845031738281 0.718101024627685547 255 0 246 26 230
3.94664311408996582 0.721589267253875732 0.988779246807098389 255 0 246 26 230
4.23734235763549805 0.864379167556762695 0.644849896430969238 255 0 246 26 230
3.92786145210266113 0.711471199989318848 0.91821664571762085 255 0 246 26 230
3.91712164878845215 0.782737970352172852 0.915993690490722656 255 0 246 26 230
3.9242706298828125 0.799807250499725342 0.931981980800628662 255 0 246 26 230
4.14249324798583984 0.798058152198791504 0.864174783229827881 255 0 246 26 230
4.14206218719482422 0.805001616477966309 0.817241966724395752 255 0 246 26 230
4.10903692245483398 0.821367800235748291 0.822025179862976074 255 0 246 26 230
4.12269210815429688 0.832548201084136963 0.798572897911071777 255 0 246 26 230
4.10434198379516602 0.821567833423614502 0.866339981555938721 255 0 246 26 230
3.93538832664489746 0.701704502105712891 0.962492644786834717 255 0 246 26 230
4.170440673828125 0.975572884082794189 0.603245377540588379 255 0 246 26 230
4.19384241104125977 0.964951694011688232 0.622539520263671875 255 0 246 26 230
4.11889028549194336 0.791781961917877197 0.887146592140197754 255 0 246 26 230
4.07934665679931641 1.12916457653045654 0.707488179206848145 255 0 246 26 230
4.1105194091796875 1.12097799777984619 0.70859992504119873 255 0 246 26 230
3.92294669151306152 0.809227168560028076 0.914201974868774414 255 0 246 26 230
3.9060971736907959 0.835212349891662598 0.898495137691497803 255 0 246 26 230
4.23017501831054688 0.838204443454742432 0.76507866382598877 255 0 246 26 230
4.20413684844970703 0.850447118282318115 0.768199920654296875 255 0 246 26 230
4.20373868942260742 0.817800521850585938 0.786621391773223877 255 0 246 26 230
4.19525527954101562 1.04784607887268066 0.687910258769989014 255 0 246 26 230
4.16295242309570312 1.05209445953369141 0.709442377090454102 255 0 246 26 230
4.1601710319519043 1.09913456439971924 0.694619119167327881 255 0 246 26 230
3.94258809089660645 0.767321348190307617 0.993444561958312988 255 0 246 26 230
3.92374515533447266 0.781983673572540283 0.950318992137908936 255 0 246 26 230
3.9543311595916748 0.784765541553497314 1.01582825183868408 255 0 246 26 230
4.02829360961914062 0.88239288330078125 0.885480940341949463 255 0 246 26 230
4.0215001106262207 0.910094141960144043 0.72051471471786499 255 0 246 26 230
4.06412553787231445 0.905586302280426025 0.752405226230621338 255 0 246 26 230
4.03213930130004883 0.905352890491485596 0.78433525562286377 255 0 246 26 230
4.01033782958984375 0.905298888683319092 0.770684123039245605 255 0 246 26 230
4.0903773307800293 1.10599792003631592 0.728682518005371094 255 0 246 26 230
4.1499786376953125 1.05556201934814453 0.72339630126953125 255 0 246 26 230
4.08814573287963867 1.05812585353851318 0.72737431526184082 255 0 246 26 230
4.13781595230102539 1.03645431995391846 0.755379199981689453 255 0 246 26 230
4.14133977890014648 1.05105042457580566 0.744963765144348145 255 0 246 26 230
4.10658454895019531 1.06797361373901367 0.761628985404968262 255 0 246 26 230
4.09051513671875 1.09398388862609863 0.759453296661376953 255 0 246 26 230
4.2466435432434082 0.873592615127563477 0.661753296852111816 255 0 246 26 230
4.17070388793945312 0.844502866268157959 0.782776832580566406 255 0 246 26 230
4.09594964981079102 0.869570434093475342 0.789543628692626953 255 0 246 26 230
4.11250829696655273 0.926044642925262451 0.75861746072769165 255 0 246 26 230
4.07861852645874023 0.891800820827484131 0.777591407299041748 255 0 246 26 230
4.12254858016967773 0.895204722881317139 0.777678728103637695 255 0 246 26 230
4.14349269866943359 0.913269281387329102 0.769946515560150146 255 0 246 26 230
4.05805349349975586 0.748490750789642334 0.956845700740814209 255 0 246 26 230
4.02948760986328125 0.760975360870361328 0.987751126289367676 255 0 246 26 230
3.99298882484436035 0.800352275371551514 0.924371957778930664 255 0 246 26 230
3.97878623008728027 0.824961960315704346 0.909868061542510986 255 0 246 26 230
4.04484272003173828 0.782552957534790039 0.900421321392059326 255 0 246 26 230
4.05509233474731445 0.824831485748291016 0.894369244575500488 255 0 246 26 230
4.09183931350708008 0.809654057025909424 0.889313578605651855 255 0 246 26 230
3.99279546737670898 0.851907551288604736 0.895087599754333496 255 0 246 26 230
4.00104379653930664 0.898270547389984131 0.800334572792053223 255 0 246 26 230
4.02038812637329102 0.889483749866485596 0.872799396514892578 255 0 246 26 230
3.95753312110900879 0.883514225482940674 0.810123324394226074 255 0 246 26 230
4.24749946594238281 0.860199332237243652 0.724607706069946289 255 0 246 26 230
4.17149925231933594 0.91515350341796875 0.750001072883605957 255 0 246 26 230
4.13721323013305664 0.948962152004241943 0.74872434139251709 255 0 246 26 230
4.15336322784423828 0.960830748081207275 0.746655941009521484 255 0 246 26 230
3.94209027290344238 0.796420395374298096 0.97770458459854126 255 0 246 26 230
3.96333551406860352 0.805276572704315186 0.988313138484954834 255 0 246 26 230
3.97952675819396973 0.805209100246429443 0.979725480079650879 255 0 246 26 230
3.9704437255859375 0.803556203842163086 1.00052893161773682 255 0 246 26 230
4.07673835754394531 1.09177350997924805 0.730087816715240479 255 0 246 26 230
3.85691618919372559 0.844233095645904541 0.819739222526550293 255 0 246 26 230
3.86568212509155273 0.833984971046447754 0.877790331840515137 255 0 246 26 230
3.8853909969329834 0.845653653144836426 0.867700278759002686 255 0 246 26 230
3.91113662719726562 0.855846703052520752 0.831811726093292236 255 0 246 26 230
3.89684271812438965 0.867384195327758789 0.796875834465026855 255 0 246 26 230
3.96185159683227539 0.862715244293212891 0.890443980693817139 255 0 246 26 230
3.91903495788574219 0.853422462940216064 0.886043429374694824 255 0 246 26 230
3.9319305419921875 0.862138569355010986 0.872260868549346924 255 0 246 26 230
3.97777938842773438 0.806293964385986328 0.929599642753601074 255 0 246 26 230
3.95574235916137695 0.883643448352813721 0.762314021587371826 255 0 246 26 230
3.97844171524047852 0.896553635597229004 0.736131906509399414 255 0 246 26 230
3.93134140968322754 0.888025224208831787 0.735422074794769287 255 0 246 26 230
4.23131656646728516 0.849326431751251221 0.617568373680114746 255 0 246 26 230
4.13157749176025391 0.944068253040313721 0.715456068515777588 255 0 246 26 230
4.11671209335327148 0.994046688079833984 0.717992961406707764 255 0 246 26 230
4.13181400299072266 0.977946698665618896 0.742877840995788574 255 0 246 26 230
4.11206388473510742 1.03053104877471924 0.751673996448516846 255 0 246 26 230
4.23237943649291992 0.845880627632141113 0.644073903560638428 255 0 246 26 230
4.24598360061645508 0.847498416900634766 0.692413926124572754 255 0 246 26 230
4.25799036026000977 0.853855013847351074 0.668946146965026855 255 0 246 26 230
4.21645545959472656 0.917620837688446045 0.61403965950012207 255 0 246 26 230
4.23024702072143555 0.873658418655395508 0.634102940559387207 255 0 246 26 230
4.2050471305847168 0.959960281848907471 0.654460251331329346 255 0 246 26 230
4.21866273880004883 0.922144412994384766 0.656750380992889404 255 0 246 26 230
4.21386194229125977 0.925229907035827637 0.685097098350524902 255 0 246 26 230
4.23130083084106445 0.892646133899688721 0.705909311771392822 255 0 246 26 230
4.20375251770019531 0.927190601825714111 0.725651025772094727 255 0 246 26 230
4.1885986328125 0.974264204502105713 0.717569231986999512 255 0 246 26 230
4.18483877182006836 0.95332413911819458 0.732687175273895264 255 0 246 26 230
4.14594554901123047 0.992704868316650391 0.750454604625701904 255 0 246 26 230
4.06148052215576172 0.908832073211669922 0.717649102210998535 255 0 246 26 230
4.10152864456176758 0.921034455299377441 0.717148840427398682 255 0 246 26 230
4.04595041275024414 0.878876447677612305 0.875702142715454102 255 0 246 26 230
4.06042861938476562 0.883510768413543701 0.802617430686950684 255 0 246 26 230
4.04363155364990234 0.886597037315368652 0.8351326584815979 255 0 246 26 230
3.92087101936340332 0.871751189231872559 0.794897317886352539 255 0 246 26 230
3.94571971893310547 0.871795058250427246 0.838392019271850586 255 0 246 26 230
3.90561962127685547 0.789776265621185303 0.902465701103210449 255 0 246 26 230
3.8829503059387207 0.733022928237915039 0.888973593711853027 255 0 246 26 230
3.8659820556640625 0.797850310802459717 0.890422523021697998 255 0 246 26 230
4.03951025009155273 0.757922947406768799 0.947997331619262695 255 0 246 26 230
4.0931391716003418 0.775957167148590088 0.901629507541656494 255 0 246 26 230
4.04270315170288086 0.764042794704437256 0.917974650859832764 255 0 246 26 230
