ply
format ascii 1.0
element vertex 617
property float x
property float y
property float z
property uchar red
property uchar green
property uchar blue
property uchar alpha
property uint label
end_header
5.67330694198608398 8.17313575744628906 0.187038779258728027 213 255 0 249 7
5.69554758071899414 8.11115264892578125 0.183423891663551331 213 255 0 249 7
5.71260356903076172 8.04568099975585938 0.181139901280403137 213 255 0 249 7
5.70633077621459961 7.98185586929321289 0.226248994469642639 213 255 0 249 7
5.84167289733886719 7.67335987091064453 0.167855903506278992 213 255 0 249 7
5.83942890167236328 7.69686365127563477 0.159388184547424316 213 255 0 249 7
5.78558540344238281 7.74093770980834961 0.26124998927116394 213 255 0 249 7
5.59894323348999023 8.28425884246826172 0.260501503944396973 213 255 0 249 7
5.57460927963256836 8.35468292236328125 0.266206949949264526 213 255 0 249 7
5.58911800384521484 8.32593917846679688 0.295281320810317993 213 255 0 249 7
5.57461357116699219 8.36879539489746094 0.288881421089172363 213 255 0 249 7
5.57468652725219727 8.3807373046875 0.238787204027175903 213 255 0 249 7
5.625 8.21296977996826172 0.474999994039535522 213 255 0 249 7
5.65532875061035156 8.14859580993652344 0.579374969005584717 213 255 0 249 7
5.83516502380371094 7.62072420120239258 0.463183581829071045 213 255 0 249 7
5.72312688827514648 7.91236448287963867 0.270293712615966797 213 255 0 249 7
5.73722505569458008 7.86803627014160156 0.242948785424232483 213 255 0 249 7
5.72557401657104492 7.91172122955322266 0.303756415843963623 213 255 0 249 7
5.74894332885742188 7.8442840576171875 0.283612817525863647 213 255 0 249 7
5.53644561767578125 8.48447704315185547 0.526250004768371582 213 255 0 249 7
5.55506038665771484 8.44586181640625 0.486249983310699463 213 255 0 249 7
5.56876087188720703 8.41170692443847656 0.376899838447570801 213 255 0 249 7
5.59034252166748047 8.32729530334472656 0.338750004768371582 213 255 0 249 7
5.78896188735961914 7.89819860458374023 0.169407561421394348 213 255 0 249 7
5.78022480010986328 7.85470676422119141 0.16790454089641571 213 255 0 249 7
5.80201435089111328 7.86126136779785156 0.168258592486381531 213 255 0 249 7
5.75242805480957031 7.93172788619995117 0.174280315637588501 213 255 0 249 7
5.82133626937866211 7.80905580520629883 0.169955193996429443 213 255 0 249 7
5.52597904205322266 8.51548385620117188 0.391222536563873291 213 255 0 249 7
5.51442718505859375 8.54007434844970703 0.360329717397689819 213 255 0 249 7
5.56525564193725586 8.45143985748291016 0.21798764169216156 213 255 0 249 7
5.58464193344116211 8.45691871643066406 0.192085608839988708 213 255 0 249 7
5.56664180755615234 8.42543411254882812 0.232016786932945251 213 255 0 249 7
5.62451553344726562 8.21042633056640625 0.246385648846626282 213 255 0 249 7
5.6262516975402832 8.22267436981201172 0.235060736536979675 213 255 0 249 7
5.62584829330444336 8.19391632080078125 0.26074555516242981 213 255 0 249 7
5.63883399963378906 8.17398357391357422 0.292903035879135132 213 255 0 249 7
5.6344151496887207 8.19261264801025391 0.333023488521575928 213 255 0 249 7
5.55515289306640625 8.44652366638183594 0.410213202238082886 213 255 0 249 7
5.56499958038330078 8.42079925537109375 0.46875 213 255 0 249 7
5.52649450302124023 8.51544475555419922 0.278856217861175537 213 255 0 249 7
5.52432060241699219 8.52054214477539062 0.346945762634277344 213 255 0 249 7
5.51496553421020508 8.53462123870849609 0.23711790144443512 213 255 0 249 7
5.68479585647583008 8.23370361328125 0.137111708521842957 213 255 0 249 7
5.68307638168334961 8.20217323303222656 0.122393421828746796 213 255 0 249 7
5.65099239349365234 8.11918067932128906 0.257028907537460327 213 255 0 249 7
5.66923093795776367 8.06520843505859375 0.254075378179550171 213 255 0 249 7
5.65533638000488281 8.12853527069091797 0.235469698905944824 213 255 0 249 7
5.68225622177124023 8.05526351928710938 0.227334633469581604 213 255 0 249 7
5.65798425674438477 8.1124420166015625 0.295066952705383301 213 255 0 249 7
5.73405265808105469 7.89876413345336914 0.41959834098815918 213 255 0 249 7
5.72499990463256836 7.91130447387695312 0.360000014305114746 213 255 0 249 7
5.76642370223999023 7.81517124176025391 0.310971200466156006 213 255 0 249 7
5.77235889434814453 7.77320194244384766 0.283076971769332886 213 255 0 249 7
5.77927350997924805 7.7573704719543457 0.315175116062164307 213 255 0 249 7
5.61483955383300781 8.44114494323730469 0.156362339854240417 213 255 0 249 7
5.61839723587036133 8.41738605499267578 0.169454365968704224 213 255 0 249 7
5.77499961853027344 7.77303075790405273 0.379999995231628418 213 255 0 249 7
5.80612754821777344 7.69101381301879883 0.514999985694885254 213 255 0 249 7
5.77785158157348633 7.7645573616027832 0.494475722312927246 213 255 0 249 7
5.57827281951904297 8.36596775054931641 0.327499985694885254 213 255 0 249 7
5.56890964508056641 8.39803695678710938 0.246712982654571533 213 255 0 249 7
5.80681657791137695 7.68379449844360352 0.384218752384185791 213 255 0 249 7
5.78748416900634766 7.73649406433105469 0.348281234502792358 213 255 0 249 7
5.57387351989746094 8.3876953125 0.522499978542327881 213 255 0 249 7
5.75166130065917969 7.86027002334594727 0.38624998927116394 213 255 0 249 7
5.7451319694519043 7.87874698638916016 0.443749994039535522 213 255 0 249 7
5.67499971389770508 8.06345081329345703 0.494999974966049194 213 255 0 249 7
5.6643829345703125 8.11517524719238281 0.471249997615814209 213 255 0 249 7
5.69050407409667969 8.0033721923828125 0.246483340859413147 213 255 0 249 7
5.73541593551635742 7.99281549453735352 0.177939236164093018 213 255 0 249 7
5.60411930084228516 8.284698486328125 0.352499991655349731 213 255 0 249 7
5.62483978271484375 8.21440315246582031 0.29149433970451355 213 255 0 249 7
5.625 8.21250724792480469 0.426249980926513672 213 255 0 249 7
5.59499979019165039 8.31026458740234375 0.419999986886978149 213 255 0 249 7
5.69814443588256836 8.18014049530029297 0.136269032955169678 213 255 0 249 7
5.72479724884033203 8.11116981506347656 0.1425304114818573 213 255 0 249 7
5.71367406845092773 8.12740707397460938 0.123549431562423706 213 255 0 249 7
5.59475040435791016 8.47264385223388672 0.170594751834869385 213 255 0 249 7
5.53248405456542969 8.50792407989501953 0.252994954586029053 213 255 0 249 7
5.5705714225769043 8.49689769744873047 0.185693696141242981 213 255 0 249 7
5.55608892440795898 8.44947528839111328 0.252614289522171021 213 255 0 249 7
5.56175041198730469 8.49269962310791016 0.198571681976318359 213 255 0 249 7
5.53578090667724609 8.53558063507080078 0.183444976806640625 213 255 0 249 7
5.54763984680175781 8.52330493927001953 0.19140838086605072 213 255 0 249 7
5.60596656799316406 8.46563625335693359 0.145612895488739014 213 255 0 249 7
5.76494026184082031 7.95466518402099609 0.174910828471183777 213 255 0 249 7
5.77302694320678711 7.96772909164428711 0.16277448832988739 213 255 0 249 7
5.74701547622680664 8.00863552093505859 0.175976142287254333 213 255 0 249 7
5.56024837493896484 8.43228816986083984 0.343782573938369751 213 255 0 249 7
5.54357671737670898 8.46487617492675781 0.303199142217636108 213 255 0 249 7
5.54036808013916016 8.47625541687011719 0.3948250412940979 213 255 0 249 7
5.73257064819335938 7.90795993804931641 0.220514178276062012 213 255 0 249 7
5.81522798538208008 7.65103626251220703 0.276250004768371582 213 255 0 249 7
5.80246925354003906 7.69338083267211914 0.229380562901496887 213 255 0 249 7
5.8204655647277832 7.63698720932006836 0.275766253471374512 213 255 0 249 7
5.73705530166625977 7.89841699600219727 0.494121760129928589 213 255 0 249 7
5.72482585906982422 7.91499948501586914 0.452499985694885254 213 255 0 249 7
5.74604892730712891 7.8780517578125 0.5 213 255 0 249 7
5.70954418182373047 7.94686317443847656 0.249787986278533936 213 255 0 249 7
5.50454998016357422 8.549652099609375 0.372185707092285156 213 255 0 249 7
5.63351678848266602 8.3844146728515625 0.152088925242424011 213 255 0 249 7
5.76473617553710938 7.81957626342773438 0.213779523968696594 213 255 0 249 7
5.80866813659667969 7.70524787902832031 0.204321131110191345 213 255 0 249 7
5.81427288055419922 7.77463388442993164 0.158838838338851929 213 255 0 249 7
5.7570796012878418 7.81482839584350586 0.238108381628990173 213 255 0 249 7
5.79569244384765625 7.82013702392578125 0.162325099110603333 213 255 0 249 7
5.77401256561279297 7.79954767227172852 0.209002703428268433 213 255 0 249 7
5.78082513809204102 7.75499963760375977 0.422500014305114746 213 255 0 249 7
5.7716984748840332 7.79374980926513672 0.436249971389770508 213 255 0 249 7
5.7649998664855957 7.82202816009521484 0.435000002384185791 213 255 0 249 7
5.82499980926513672 7.635009765625 0.460000008344650269 213 255 0 249 7
5.71658897399902344 7.93499994277954102 0.310000002384185791 213 255 0 249 7
5.76017570495605469 7.85579395294189453 0.904999971389770508 213 255 0 249 7
5.74589920043945312 7.90049076080322266 0.9004402756690979 213 255 0 249 7
5.66605615615844727 8.10348701477050781 0.934837043285369873 213 255 0 249 7
5.64141988754272461 8.19745349884033203 0.908910989761352539 213 255 0 249 7
5.62311935424804688 8.24455833435058594 0.914999961853027344 213 255 0 249 7
5.6947021484375 8.01078128814697266 0.969999969005584717 213 255 0 249 7
5.60548877716064453 8.29312801361083984 0.880802571773529053 213 255 0 249 7
5.65491485595703125 8.11538124084472656 0.985001683235168457 213 255 0 249 7
5.63811016082763672 8.18093681335449219 0.964999973773956299 213 255 0 249 7
5.68661022186279297 8.03094387054443359 0.995965540409088135 213 255 0 249 7
5.83850002288818359 7.61937522888183594 0.908697366714477539 213 255 0 249 7
5.78904438018798828 7.72912502288818359 0.974999964237213135 213 255 0 249 7
5.77939414978027344 7.7779850959777832 0.954999983310699463 213 255 0 249 7
5.68737888336181641 8.02897262573242188 0.685624957084655762 213 255 0 249 7
5.67499971389770508 8.06581211090087891 0.625 213 255 0 249 7
5.76699733734130859 7.82372522354125977 0.682872593402862549 213 255 0 249 7
5.73932647705078125 7.90038728713989258 0.688422501087188721 213 255 0 249 7
5.87209844589233398 7.5060577392578125 0.923491775989532471 213 255 0 249 7
5.62807989120483398 8.20754623413085938 0.712884485721588135 213 255 0 249 7
5.74570655822753906 7.89790725708007812 0.858208179473876953 213 255 0 249 7
5.68906879425048828 8.03999996185302734 0.794999957084655762 213 255 0 249 7
5.68047237396240234 8.0565948486328125 0.836642682552337646 213 255 0 249 7
5.6895594596862793 8.03596878051757812 0.882499992847442627 213 255 0 249 7
5.55518388748168945 8.44644737243652344 0.574999988079071045 213 255 0 249 7
5.55511951446533203 8.44491672515869141 0.636874973773956299 213 255 0 249 7
5.53499984741210938 8.48751068115234375 0.60000002384185791 213 255 0 249 7
5.68776798248291016 8.024169921875 0.564999997615814209 213 255 0 249 7
5.67660284042358398 8.05861949920654297 0.536774754524230957 213 255 0 249 7
5.52738571166992188 8.50389575958251953 0.69412696361541748 213 255 0 249 7
5.51521682739257812 8.53620433807373047 0.665742576122283936 213 255 0 249 7
5.64745187759399414 8.15395832061767578 0.829970300197601318 213 255 0 249 7
5.61511993408203125 8.25015830993652344 0.824999988079071045 213 255 0 249 7
5.63381052017211914 8.21779441833496094 0.865000009536743164 213 255 0 249 7
5.80304622650146484 7.72007417678833008 0.785799741744995117 213 255 0 249 7
5.7369236946105957 7.89560890197753906 0.822834789752960205 213 255 0 249 7
5.73935413360595703 7.90369701385498047 0.842195510864257812 213 255 0 249 7
5.60666847229003906 8.298431396484375 0.904999971389770508 213 255 0 249 7
5.6447911262512207 8.14745140075683594 0.994486451148986816 213 255 0 249 7
5.77775812149047852 7.77113866806030273 0.707436203956604004 213 255 0 249 7
5.77752304077148438 7.77244758605957031 0.651250004768371582 213 255 0 249 7
5.58509159088134766 8.33648872375488281 0.657499969005584717 213 255 0 249 7
5.60364580154418945 8.28253364562988281 0.663124978542327881 213 255 0 249 7
5.72466135025024414 7.93326377868652344 0.917718172073364258 213 255 0 249 7
5.72018814086914062 7.95523834228515625 0.954173445701599121 213 255 0 249 7
5.53814792633056641 8.47891044616699219 0.679258942604064941 213 255 0 249 7
5.55536174774169922 8.44378376007080078 0.694517433643341064 213 255 0 249 7
5.56483888626098633 8.4155731201171875 0.690351545810699463 213 255 0 249 7
5.62514448165893555 8.21407890319824219 0.606874942779541016 213 255 0 249 7
5.64508247375488281 8.17578887939453125 0.605000019073486328 213 255 0 249 7
5.51242542266845703 8.54898166656494141 0.963859617710113525 213 255 0 249 7
5.52775287628173828 8.49216270446777344 0.995824933052062988 213 255 0 249 7
5.67521810531616211 8.06789016723632812 0.664999961853027344 213 255 0 249 7
5.66485691070556641 8.11495685577392578 0.678750038146972656 213 255 0 249 7
5.65459680557250977 8.15387248992919922 0.690474510192871094 213 255 0 249 7
5.52473783493041992 8.52538108825683594 0.961929500102996826 213 255 0 249 7
5.54812431335449219 8.43844223022460938 0.974999964237213135 213 255 0 249 7
5.76826000213623047 7.80111932754516602 0.715259730815887451 213 255 0 249 7
5.7825169563293457 7.77250003814697266 0.944999992847442627 213 255 0 249 7
5.74992847442626953 7.86417293548583984 0.939999997615814209 213 255 0 249 7
5.65906381607055664 8.14695549011230469 0.902881503105163574 213 255 0 249 7
5.81974935531616211 7.66076755523681641 0.954999983310699463 213 255 0 249 7
5.69040966033935547 8.03459358215332031 0.954375922679901123 213 255 0 249 7
5.72413444519042969 7.92186450958251953 0.674310863018035889 213 255 0 249 7
5.71496486663818359 7.94339752197265625 0.633749961853027344 213 255 0 249 7
5.71541357040405273 7.93896722793579102 0.550000011920928955 213 255 0 249 7
5.6769719123840332 8.06016635894775391 0.722684919834136963 213 255 0 249 7
5.69049692153930664 8.02271080017089844 0.770840466022491455 213 255 0 249 7
5.51666021347045898 8.53409099578857422 0.568001091480255127 213 255 0 249 7
5.52626323699951172 8.51064777374267578 0.659999966621398926 213 255 0 249 7
5.55759143829345703 8.44591236114501953 0.903435945510864258 213 255 0 249 7
5.55659866333007812 8.44771289825439453 0.871804118156433105 213 255 0 249 7
5.53732538223266602 8.48268508911132812 0.927562117576599121 213 255 0 249 7
5.56500005722045898 8.42076683044433594 0.914999961853027344 213 255 0 249 7
5.58477973937988281 8.36745738983154297 0.866252303123474121 213 255 0 249 7
5.66452884674072266 8.12975215911865234 0.857936203479766846 213 255 0 249 7
5.69503307342529297 8.01918601989746094 0.816861450672149658 213 255 0 249 7
5.67038202285766602 8.08194065093994141 0.834691047668457031 213 255 0 249 7
5.6160588264465332 8.24374961853027344 0.644999980926513672 213 255 0 249 7
5.64236879348754883 8.18225002288818359 0.698538422584533691 213 255 0 249 7
5.83499956130981445 7.62465476989746094 0.579999983310699463 213 255 0 249 7
5.81606721878051758 7.65854358673095703 0.542500019073486328 213 255 0 249 7
5.81955385208129883 7.64499998092651367 0.430000007152557373 213 255 0 249 7
5.58590507507324219 8.33326339721679688 0.964999973773956299 213 255 0 249 7
5.83006954193115234 7.60852432250976562 0.97500312328338623 213 255 0 249 7
5.66499996185302734 8.11330413818359375 0.542500019073486328 213 255 0 249 7
5.77829599380493164 7.77536249160766602 0.762298703193664551 213 255 0 249 7
5.78359270095825195 7.77370214462280273 0.787526845932006836 213 255 0 249 7
5.75714445114135742 7.84732627868652344 0.794999957084655762 213 255 0 249 7
5.7227025032043457 7.92047691345214844 0.710331261157989502 213 255 0 249 7
5.76800012588500977 7.8061070442199707 0.814999997615814209 213 255 0 249 7
5.64702987670898438 8.16212558746337891 0.805000007152557373 213 255 0 249 7
5.60814428329467773 8.28123092651367188 0.849779963493347168 213 255 0 249 7
5.81705856323242188 7.64770650863647461 0.985380649566650391 213 255 0 249 7
5.70981550216674805 7.95679998397827148 0.985025942325592041 213 255 0 249 7
5.62662076950073242 8.23499965667724609 0.884999990463256836 213 255 0 249 7
5.6170649528503418 8.24655532836914062 0.936391890048980713 213 255 0 249 7
5.66401004791259766 8.11767768859863281 0.604062497615814209 213 255 0 249 7
5.74700403213500977 7.86022424697875977 0.752499997615814209 213 255 0 249 7
5.73479747772216797 7.89144802093505859 0.721320807933807373 213 255 0 249 7
5.75560998916625977 7.84291410446166992 0.77499997615814209 213 255 0 249 7
5.73145866394042969 7.91749954223632812 0.784999966621398926 213 255 0 249 7
5.53622150421142578 8.48860645294189453 0.862185359001159668 213 255 0 249 7
5.5161280632019043 8.54074954986572266 0.903008997440338135 213 255 0 249 7
5.58533143997192383 8.34075546264648438 0.520624995231628418 213 255 0 249 7
5.61144638061523438 8.26256656646728516 0.730940878391265869 213 255 0 249 7
5.59580612182617188 8.28281879425048828 0.763247311115264893 213 255 0 249 7
5.82114791870117188 7.64947032928466797 0.670983731746673584 213 255 0 249 7
5.82499980926513672 7.63790655136108398 0.579999983310699463 213 255 0 249 7
5.61636161804199219 8.24016380310058594 0.54062497615814209 213 255 0 249 7
5.60208225250244141 8.28703689575195312 0.552500009536743164 213 255 0 249 7
5.65149831771850586 8.1399993896484375 0.745000004768371582 213 255 0 249 7
5.741546630859375 7.88805913925170898 0.954999566078186035 213 255 0 249 7
5.77999687194824219 7.75310134887695312 0.984975814819335938 213 255 0 249 7
5.75034141540527344 7.84184074401855469 0.974999964237213135 213 255 0 249 7
5.8485865592956543 7.58098697662353516 0.945052444934844971 213 255 0 249 7
5.84775447845458984 7.57030487060546875 0.959997355937957764 213 255 0 249 7
5.56500005722045898 8.41938972473144531 0.603749990463256836 213 255 0 249 7
5.58514499664306641 8.3359527587890625 0.611249983310699463 213 255 0 249 7
5.73664426803588867 7.89943218231201172 0.582499980926513672 213 255 0 249 7
5.74522781372070312 7.88249969482421875 0.574375033378601074 213 255 0 249 7
5.86851024627685547 7.50244235992431641 0.984670579433441162 213 255 0 249 7
5.87266397476196289 7.51352930068969727 0.946768462657928467 213 255 0 249 7
5.57697153091430664 8.36383247375488281 0.949999988079071045 213 255 0 249 7
5.61613798141479492 8.24947929382324219 0.954999983310699463 213 255 0 249 7
5.58508968353271484 8.34375 0.935000002384185791 213 255 0 249 7
5.55247163772583008 8.4375 0.944999992847442627 213 255 0 249 7
5.77213668823242188 7.80141067504882812 0.92499995231628418 213 255 0 249 7
5.73958635330200195 7.89180374145507812 0.933120250701904297 213 255 0 249 7
5.74497747421264648 7.88510227203369141 0.639999985694885254 213 255 0 249 7
5.71972131729125977 7.93677997589111328 0.735000014305114746 213 255 0 249 7
5.70441961288452148 7.98123788833618164 0.68281245231628418 213 255 0 249 7
5.70433282852172852 7.98515844345092773 0.766240477561950684 213 255 0 249 7
5.71534442901611328 7.95151901245117188 0.770068466663360596 213 255 0 249 7
5.52579927444458008 8.52805328369140625 0.809172987937927246 213 255 0 249 7
5.53823328018188477 8.48204326629638672 0.839944958686828613 213 255 0 249 7
5.51750755310058594 8.53793621063232422 0.848534584045410156 213 255 0 249 7
5.56632041931152344 8.37347412109375 0.99515300989151001 213 255 0 249 7
5.59189796447753906 8.29889678955078125 0.984999954700469971 213 255 0 249 7
5.7972564697265625 7.71845102310180664 0.750573575496673584 213 255 0 249 7
5.78160667419433594 7.74381828308105469 0.743090927600860596 213 255 0 249 7
5.70696020126342773 7.98878908157348633 0.819408535957336426 213 255 0 249 7
5.72538995742797852 7.92827033996582031 0.834724009037017822 213 255 0 249 7
5.7133941650390625 7.97873115539550781 0.792818546295166016 213 255 0 249 7
5.52494144439697266 8.51879024505615234 0.742209732532501221 213 255 0 249 7
5.51561450958251953 8.54007911682128906 0.766512572765350342 213 255 0 249 7
5.52621269226074219 8.51451683044433594 0.781825900077819824 213 255 0 249 7
5.78571033477783203 7.74724483489990234 0.607187509536743164 213 255 0 249 7
5.8054509162902832 7.69630718231201172 0.574999988079071045 213 255 0 249 7
5.76388359069824219 7.83167552947998047 0.584999978542327881 213 255 0 249 7
5.7752532958984375 7.779632568359375 0.550312519073486328 213 255 0 249 7
5.76840353012084961 7.81281280517578125 0.625468730926513672 213 255 0 249 7
5.58503198623657227 8.32275295257568359 0.749704957008361816 213 255 0 249 7
5.57842826843261719 8.35358905792236328 0.776233315467834473 213 255 0 249 7
5.58532857894897461 8.33509254455566406 0.721381187438964844 213 255 0 249 7
5.55211734771728516 8.43244743347167969 0.744087338447570801 213 255 0 249 7
5.55434799194335938 8.42639923095703125 0.771250009536743164 213 255 0 249 7
5.56896400451660156 8.38406276702880859 0.745000004768371582 213 255 0 249 7
5.68010520935058594 8.0639801025390625 0.866872668266296387 213 255 0 249 7
5.70981025695800781 7.98465633392333984 0.910078048706054688 213 255 0 249 7
5.68041801452636719 8.06118392944335938 0.924159586429595947 213 255 0 249 7
5.51394748687744141 8.52922630310058594 0.994265556335449219 213 255 0 249 7
5.81712627410888672 7.67383670806884766 0.944995999336242676 213 255 0 249 7
5.79109382629394531 7.74421977996826172 0.935000002384185791 213 255 0 249 7
5.82063102722167969 7.65877532958984375 0.924930393695831299 213 255 0 249 7
5.55088424682617188 8.43990325927734375 0.837875843048095703 213 255 0 249 7
5.58800792694091797 8.33575153350830078 0.79999995231628418 213 255 0 249 7
5.57885026931762695 8.35651397705078125 0.824999988079071045 213 255 0 249 7
5.55206537246704102 8.44211387634277344 0.805000007152557373 213 255 0 249 7
5.59828472137451172 8.29835987091064453 0.834931015968322754 213 255 0 249 7
5.65178823471069336 8.14389324188232422 0.725077152252197266 213 255 0 249 7
5.62888336181640625 8.21196460723876953 0.74871361255645752 213 255 0 249 7
5.62905311584472656 8.20826339721679688 0.775143742561340332 213 255 0 249 7
5.65868949890136719 8.12151908874511719 0.772499978542327881 213 255 0 249 7
5.61946010589599609 8.24364185333251953 0.790186583995819092 213 255 0 249 7
5.90641212463378906 7.39774942398071289 0.965915322303771973 213 255 0 249 7
6.04802703857421875 7.00146150588989258 0.965023636817932129 213 255 0 249 7
6.05508613586425781 6.98584413528442383 0.954999983310699463 213 255 0 249 7
6.04573202133178711 7.01613187789916992 0.975776612758636475 213 255 0 249 7
6.10460281372070312 6.85009098052978516 0.797827780246734619 213 255 0 249 7
6.12448358535766602 6.82493066787719727 0.794572770595550537 213 255 0 249 7
6.08462333679199219 6.90286445617675781 0.810728311538696289 213 255 0 249 7
6.08902788162231445 6.92237186431884766 0.881360828876495361 213 255 0 249 7
6.08798742294311523 6.90033054351806641 0.901276946067810059 213 255 0 249 7
6.08241605758666992 6.9177398681640625 0.907892882823944092 213 255 0 249 7
6.04794549942016602 7.00716686248779297 0.794999957084655762 213 255 0 249 7
6.03812122344970703 7.0650935173034668 0.874966740608215332 213 255 0 249 7
6.04062747955322266 7.05740642547607422 0.838853776454925537 213 255 0 249 7
6.03763961791992188 7.03988313674926758 0.814938783645629883 213 255 0 249 7
6.10631704330444336 6.84395551681518555 0.95511239767074585 213 255 0 249 7
6.11820173263549805 6.81448602676391602 0.95834428071975708 213 255 0 249 7
6.1210179328918457 6.83459901809692383 0.913775980472564697 213 255 0 249 7
6.12946701049804688 6.82552003860473633 0.926773786544799805 213 255 0 249 7
6.10457086563110352 6.85875272750854492 0.90365135669708252 213 255 0 249 7
6.11229896545410156 6.84517717361450195 0.937665879726409912 213 255 0 249 7
6.05885934829711914 6.99373340606689453 0.93486553430557251 213 255 0 249 7
5.98234272003173828 7.19334602355957031 0.794999957084655762 213 255 0 249 7
5.98435401916503906 7.18854570388793945 0.814999997615814209 213 255 0 249 7
5.94583988189697266 7.32077598571777344 0.837820231914520264 213 255 0 249 7
5.94576406478881836 7.32394218444824219 0.889111220836639404 213 255 0 249 7
5.93831110000610352 7.33206653594970703 0.901679813861846924 213 255 0 249 7
5.94272851943969727 7.31857013702392578 0.94208759069442749 213 255 0 249 7
6.00336456298828125 7.1551966667175293 0.894954562187194824 213 255 0 249 7
6.06019115447998047 6.98576784133911133 0.77499997615814209 213 255 0 249 7
5.96733570098876953 7.22472763061523438 0.964922189712524414 213 255 0 249 7
5.94832611083984375 7.27983713150024414 0.97509688138961792 213 255 0 249 7
6.13046932220458984 6.8236689567565918 0.752123713493347168 213 255 0 249 7
5.92903470993041992 7.34165573120117188 0.832665085792541504 213 255 0 249 7
5.96993541717529297 7.22488689422607422 0.805000007152557373 213 255 0 249 7
5.93305301666259766 7.3284144401550293 0.814389884471893311 213 255 0 249 7
5.96456766128540039 7.25681066513061523 0.825114607810974121 213 255 0 249 7
5.91120195388793945 7.39476919174194336 0.800307989120483398 213 255 0 249 7
5.95125484466552734 7.29889822006225586 0.774734437465667725 213 255 0 249 7
5.90982675552368164 7.41705703735351562 0.808447897434234619 213 255 0 249 7
5.91416740417480469 7.39674663543701172 0.94652867317199707 213 255 0 249 7
6.08596563339233398 6.92484283447265625 0.829921364784240723 213 255 0 249 7
6.02376079559326172 7.07275104522705078 0.805014848709106445 213 255 0 249 7
6.06444311141967773 6.99234724044799805 0.874374985694885254 213 255 0 249 7
6.08531522750854492 6.89910554885864258 0.802519857883453369 213 255 0 249 7
6.03463268280029297 7.0651555061340332 0.824965000152587891 213 255 0 249 7
5.92117071151733398 7.36895942687988281 0.85468745231628418 213 255 0 249 7
5.93080949783325195 7.34285879135131836 0.916345715522766113 213 255 0 249 7
6.00461244583129883 7.15545749664306641 0.834545135498046875 213 255 0 249 7
6.01829338073730469 7.11561489105224609 0.834530532360076904 213 255 0 249 7
6.03059482574462891 7.07848215103149414 0.856964409351348877 213 255 0 249 7
6.00633859634399414 7.14110326766967773 0.853177070617675781 213 255 0 249 7
5.99565315246582031 7.1852569580078125 0.864213407039642334 213 255 0 249 7
6.01106929779052734 7.14028358459472656 0.871402144432067871 213 255 0 249 7
6.05121612548828125 7.00872182846069336 0.904996097087860107 213 255 0 249 7
6.00229644775390625 7.14765501022338867 0.904999971389770508 213 255 0 249 7
6.0549163818359375 7.01711702346801758 0.884971678256988525 213 255 0 249 7
6.02686405181884766 7.07424783706665039 0.91499096155166626 213 255 0 249 7
6.02399492263793945 7.08624982833862305 0.944999992847442627 213 255 0 249 7
5.98830223083496094 7.19250011444091797 0.935000002384185791 213 255 0 249 7
5.99922370910644531 7.13640069961547852 0.963893592357635498 213 255 0 249 7
6.106109619140625 6.85670137405395508 0.768588840961456299 213 255 0 249 7
6.10780572891235352 6.83815145492553711 0.964721858501434326 213 255 0 249 7
6.00247955322265625 7.15149974822998047 0.77499997615814209 213 255 0 249 7
5.934783935546875 7.3167271614074707 0.965021610260009766 213 255 0 249 7
6.00792026519775391 7.15060138702392578 0.884987235069274902 213 255 0 249 7
5.9714508056640625 7.22935295104980469 0.914830803871154785 213 255 0 249 7
6.01120424270629883 7.10816144943237305 0.974420309066772461 213 255 0 249 7
5.97384452819824219 7.22749996185302734 0.944999992847442627 213 255 0 249 7
6.12339878082275391 6.8558955192565918 0.140359044075012207 213 255 0 249 7
5.97793865203857422 7.19499969482421875 0.489687502384185791 213 255 0 249 7
5.89672517776489258 7.41499996185302734 0.375 213 255 0 249 7
6.03964138031005859 7.02975797653198242 0.194916129112243652 213 255 0 249 7
5.99891996383666992 7.11514997482299805 0.228520125150680542 213 255 0 249 7
5.95164012908935547 7.49524736404418945 0.131263270974159241 213 255 0 249 7
5.95114231109619141 7.45058727264404297 0.160676702857017517 213 255 0 249 7
6.11483192443847656 6.82503032684326172 0.476095736026763916 213 255 0 249 7
5.93290376663208008 7.32499980926513672 0.449999988079071045 213 255 0 249 7
5.92709255218505859 7.32882452011108398 0.297486662864685059 213 255 0 249 7
5.93600797653198242 7.31313180923461914 0.302424222230911255 213 255 0 249 7
5.91703319549560547 7.34266519546508789 0.283480316400527954 213 255 0 249 7
5.92777061462402344 7.31506586074829102 0.267047673463821411 213 255 0 249 7
5.94503927230834961 7.27999782562255859 0.227325707674026489 213 255 0 249 7
5.9128265380859375 7.35287141799926758 0.244836941361427307 213 255 0 249 7
5.94296598434448242 7.30499982833862305 0.454999983310699463 213 255 0 249 7
5.93976116180419922 7.31499958038330078 0.490000009536743164 213 255 0 249 7
5.93549966812133789 7.32479763031005859 0.564999997615814209 213 255 0 249 7
6.10360479354858398 6.85932588577270508 0.172058984637260437 213 255 0 249 7
6.08547353744506836 6.89214324951171875 0.193892210721969604 213 255 0 249 7
6.01655244827270508 7.06500005722045898 0.370000004768371582 213 255 0 249 7
6.0092015266418457 7.09248924255371094 0.444062471389770508 213 255 0 249 7
6.03484725952148438 7.03533267974853516 0.408749997615814209 213 255 0 249 7
5.97487449645996094 7.21494197845458984 0.419999986886978149 213 255 0 249 7
5.99634790420532227 7.36202049255371094 0.140827059745788574 213 255 0 249 7
6.04577159881591797 7.24554014205932617 0.116822704672813416 213 255 0 249 7
6.01930618286132812 7.31162405014038086 0.112394735217094421 213 255 0 249 7
5.98749971389770508 7.19168901443481445 0.194810658693313599 213 255 0 249 7
5.97603464126586914 7.17777824401855469 0.232035115361213684 213 255 0 249 7
6.07748985290527344 6.88995552062988281 0.446249991655349731 213 255 0 249 7
6.02112007141113281 7.05008172988891602 0.222494170069694519 213 255 0 249 7
6.03558206558227539 7.00314474105834961 0.264952152967453003 213 255 0 249 7
6.03096246719360352 7.04099464416503906 0.293494313955307007 213 255 0 249 7
5.90401554107666016 7.3899993896484375 0.442499995231628418 213 255 0 249 7
5.89157009124755859 7.42485141754150391 0.42635113000869751 213 255 0 249 7
5.98113155364990234 7.16750001907348633 0.291249990463256836 213 255 0 249 7
5.9277043342590332 7.50606203079223633 0.166185304522514343 213 255 0 249 7
5.93168830871582031 7.48150110244750977 0.166732534766197205 213 255 0 249 7
5.93138790130615234 7.44244766235351562 0.15924932062625885 213 255 0 249 7
5.97449588775634766 7.18499994277954102 0.3125 213 255 0 249 7
5.98394680023193359 7.16499996185302734 0.391250014305114746 213 255 0 249 7
6.02165603637695312 7.05499982833862305 0.368437469005584717 213 255 0 249 7
5.92273330688476562 7.33500003814697266 0.394999980926513672 213 255 0 249 7
5.91686058044433594 7.34499979019165039 0.367500007152557373 213 255 0 249 7
5.97289848327636719 7.32144832611083984 0.165749803185462952 213 255 0 249 7
5.95317220687866211 7.37237882614135742 0.159071996808052063 213 255 0 249 7
5.99474954605102539 7.32794284820556641 0.159713000059127808 213 255 0 249 7
5.93941926956176758 7.31867170333862305 0.213138192892074585 213 255 0 249 7
6.02557754516601562 7.241973876953125 0.156267940998077393 213 255 0 249 7
6.03290224075317383 7.25336933135986328 0.141107752919197083 213 255 0 249 7
6.06209945678710938 7.20144748687744141 0.139109417796134949 213 255 0 249 7
6.07321691513061523 7.21340751647949219 0.108698010444641113 213 255 0 249 7
5.98776912689208984 7.15749979019165039 0.439999997615814209 213 255 0 249 7
6.06666660308837891 6.94127368927001953 0.360223710536956787 213 255 0 249 7
6.07044219970703125 6.92499971389770508 0.397499978542327881 213 255 0 249 7
5.91419315338134766 7.36250019073486328 0.499999970197677612 213 255 0 249 7
5.90105772018432617 7.41218852996826172 0.453112155199050903 213 255 0 249 7
5.90532493591308594 7.38634395599365234 0.514999985694885254 213 255 0 249 7
5.8976292610168457 7.41675281524658203 0.542500019073486328 213 255 0 249 7
6.07509040832519531 6.90495681762695312 0.51874995231628418 213 255 0 249 7
6.07590770721435547 6.9349822998046875 0.596875011920928955 213 255 0 249 7
5.98859119415283203 7.23502492904663086 0.183204799890518188 213 255 0 249 7
5.98920249938964844 7.28050470352172852 0.164568305015563965 213 255 0 249 7
5.96268606185913086 7.23186826705932617 0.221770882606506348 213 255 0 249 7
5.97412300109863281 7.21999979019165039 0.461874991655349731 213 255 0 249 7
5.95685100555419922 7.26046943664550781 0.356679677963256836 213 255 0 249 7
5.97241353988647461 7.19468593597412109 0.297553122043609619 213 255 0 249 7
5.92578744888305664 7.3823695182800293 0.195518568158149719 213 255 0 249 7
5.93561697006225586 7.41202020645141602 0.160774394869804382 213 255 0 249 7
5.96270227432250977 7.40859413146972656 0.162147894501686096 213 255 0 249 7
5.91430902481079102 7.4197688102722168 0.19582502543926239 213 255 0 249 7
5.97843503952026367 7.36781549453735352 0.161490604281425476 213 255 0 249 7
6.0144038200378418 7.0648651123046875 0.280029475688934326 213 255 0 249 7
6.00594234466552734 7.10034751892089844 0.377499997615814209 213 255 0 249 7
6.00049304962158203 7.11499977111816406 0.305000007152557373 213 255 0 249 7
5.97761440277099609 7.42517757415771484 0.124712713062763214 213 255 0 249 7
5.97279930114746094 7.42344284057617188 0.139915317296981812 213 255 0 249 7
6.08537912368774414 6.86494541168212891 0.330937504768371582 213 255 0 249 7
6.06629848480224609 6.91642379760742188 0.279299288988113403 213 255 0 249 7
6.07116222381591797 6.90499973297119141 0.384999990463256836 213 255 0 249 7
5.8679041862487793 7.47998905181884766 0.277108162641525269 213 255 0 249 7
5.87130928039550781 7.47499990463256836 0.330000013113021851 213 255 0 249 7
5.88499975204467773 7.43449592590332031 0.324999988079071045 213 255 0 249 7
5.86485004425048828 7.49062967300415039 0.24080793559551239 213 255 0 249 7
6.04235458374023438 7.01781225204467773 0.453281223773956299 213 255 0 249 7
5.88652420043945312 7.43632698059082031 0.447860896587371826 213 255 0 249 7
5.87237358093261719 7.47499990463256836 0.389999985694885254 213 255 0 249 7
5.88849163055419922 7.44094705581665039 0.22297900915145874 213 255 0 249 7
6.00724029541015625 7.21859455108642578 0.171784386038780212 213 255 0 249 7
5.88543176651000977 7.44662618637084961 0.604315876960754395 213 255 0 249 7
5.87107467651367188 7.48999977111816406 0.523124992847442627 213 255 0 249 7
6.05966663360595703 6.93077182769775391 0.256682455539703369 213 255 0 249 7
6.06613397598266602 6.93894386291503906 0.2889423668384552 213 255 0 249 7
5.90088796615600586 7.39118146896362305 0.233014896512031555 213 255 0 249 7
5.89512777328491211 7.41449260711669922 0.233858004212379456 213 255 0 249 7
6.08090877532958984 6.87210321426391602 0.222923606634140015 213 255 0 249 7
6.06622934341430664 6.94667482376098633 0.19605642557144165 213 255 0 249 7
6.03825759887695312 6.99320268630981445 0.23102550208568573 213 255 0 249 7
6.01177120208740234 7.33530139923095703 0.126830041408538818 213 255 0 249 7
6.05320644378662109 6.98026561737060547 0.352500021457672119 213 255 0 249 7
5.96544647216796875 7.20252323150634766 0.248158186674118042 213 255 0 249 7
5.96684932708740234 7.20607757568359375 0.272771745920181274 213 255 0 249 7
5.94813776016235352 7.25838232040405273 0.269352376461029053 213 255 0 249 7
5.93850278854370117 7.28499984741210938 0.245000004768371582 213 255 0 249 7
5.97051382064819336 7.21872854232788086 0.294715762138366699 213 255 0 249 7
6.02272462844848633 7.05499982833862305 0.494999974966049194 213 255 0 249 7
6.03831338882446289 7.03499984741210938 0.522499978542327881 213 255 0 249 7
6.01841831207275391 7.06500005722045898 0.489999979734420776 213 255 0 249 7
5.99369335174560547 7.16249895095825195 0.198130384087562561 213 255 0 249 7
6.00369071960449219 7.19326591491699219 0.163767144083976746 213 255 0 249 7
6.02145862579345703 7.15850305557250977 0.15465952455997467 213 255 0 249 7
6.04135608673095703 7.16174983978271484 0.165175214409828186 213 255 0 249 7
6.04737186431884766 7.1827702522277832 0.159484773874282837 213 255 0 249 7
6.00655794143676758 7.13285398483276367 0.195250809192657471 213 255 0 249 7
6.03935670852661133 7.12468481063842773 0.150980919599533081 213 255 0 249 7
6.06775188446044922 6.90759944915771484 0.270265340805053711 213 255 0 249 7
6.09108161926269531 6.85500001907348633 0.33984375 213 255 0 249 7
6.09112977981567383 6.85491752624511719 0.20393526554107666 213 255 0 249 7
6.10717058181762695 6.83491277694702148 0.26916232705116272 213 255 0 249 7
5.9029841423034668 7.38499975204467773 0.309999972581863403 213 255 0 249 7
5.90032672882080078 7.40499973297119141 0.348749995231628418 213 255 0 249 7
5.88697052001953125 7.4275360107421875 0.246669113636016846 213 255 0 249 7
6.08859491348266602 6.86499977111816406 0.497812479734420776 213 255 0 249 7
6.10921430587768555 6.83516407012939453 0.49736177921295166 213 255 0 249 7
6.10699558258056641 6.83491039276123047 0.364736378192901611 213 255 0 249 7
6.10625648498535156 6.83474111557006836 0.189147934317588806 213 255 0 249 7
5.89832830429077148 7.43506431579589844 0.805295288562774658 213 255 0 249 7
5.88634109497070312 7.46481132507324219 0.807748615741729736 213 255 0 249 7
6.11891651153564453 6.82499980926513672 0.574999988079071045 213 255 0 249 7
5.87751865386962891 7.46249961853027344 0.454999983310699463 213 255 0 249 7
5.87493801116943359 7.48003768920898438 0.616250038146972656 213 255 0 249 7
5.99197530746459961 7.16585874557495117 0.750074088573455811 213 255 0 249 7
6.00566816329956055 7.12683343887329102 0.731095671653747559 213 255 0 249 7
5.92493820190429688 7.33486843109130859 0.502499997615814209 213 255 0 249 7
5.88149309158325195 7.4828639030456543 0.90551990270614624 213 255 0 249 7
5.88586997985839844 7.47607755661010742 0.929865777492523193 213 255 0 249 7
5.90964603424072266 7.3747100830078125 0.576249957084655762 213 255 0 249 7
5.98177862167358398 7.21111392974853516 0.667804718017578125 213 255 0 249 7
5.97309780120849609 7.21121740341186523 0.700538873672485352 213 255 0 249 7
6.07715082168579102 6.92503261566162109 0.580625057220458984 213 255 0 249 7
6.05567836761474609 7.00057506561279297 0.764951944351196289 213 255 0 249 7
6.07219791412353516 6.93669319152832031 0.745000004768371582 213 255 0 249 7
5.98286628723144531 7.14896011352539062 0.72921377420425415 213 255 0 249 7
5.98837471008300781 7.17334985733032227 0.717452645301818848 213 255 0 249 7
5.91066455841064453 7.39038801193237305 0.759852290153503418 213 255 0 249 7
5.91864395141601562 7.39125490188598633 0.776665091514587402 213 255 0 249 7
6.02804851531982422 7.0579829216003418 0.685857534408569336 213 255 0 249 7
6.02329444885253906 7.06500005722045898 0.601249992847442627 213 255 0 249 7
6.02182149887084961 7.07499980926513672 0.625 213 255 0 249 7
5.87724208831787109 7.48163747787475586 0.744843721389770508 213 255 0 249 7
5.89312171936035156 7.43820905685424805 0.76483464241027832 213 255 0 249 7
5.89873313903808594 7.444305419921875 0.781845211982727051 213 255 0 249 7
6.12131786346435547 6.82499980926513672 0.669999957084655762 213 255 0 249 7
6.10554313659667969 6.84495639801025391 0.700624942779541016 213 255 0 249 7
6.10004043579101562 6.85532140731811523 0.75011134147644043 213 255 0 249 7
5.90237760543823242 7.41502761840820312 0.664999961853027344 213 255 0 249 7
5.90620231628417969 7.39487743377685547 0.667500019073486328 213 255 0 249 7
6.09413051605224609 6.85468864440917969 0.518750011920928955 213 255 0 249 7
6.09660530090332031 6.85500001907348633 0.639999985694885254 213 255 0 249 7
6.10770511627197266 6.83971881866455078 0.597499966621398926 213 255 0 249 7
5.948150634765625 7.28515148162841797 0.723749995231628418 213 255 0 249 7
5.94227981567382812 7.32049083709716797 0.670265674591064453 213 255 0 249 7
5.93265867233276367 7.32276773452758789 0.703899562358856201 213 255 0 249 7
6.04545402526855469 7.03309249877929688 0.665940046310424805 213 255 0 249 7
6.04892635345458984 7.00152349472045898 0.713750004768371582 213 255 0 249 7
6.01798439025878906 7.09131336212158203 0.691336333751678467 213 255 0 249 7
5.9970245361328125 7.14863300323486328 0.693609058856964111 213 255 0 249 7
5.98858404159545898 7.16499996185302734 0.589062511920928955 213 255 0 249 7
5.9800262451171875 7.18499994277954102 0.546875 213 255 0 249 7
6.00396633148193359 7.11811637878417969 0.549921870231628418 213 255 0 249 7
5.98279857635498047 7.18365192413330078 0.682207584381103516 213 255 0 249 7
5.96527481079101562 7.24917268753051758 0.529843747615814209 213 255 0 249 7
5.978363037109375 7.21499967575073242 0.569999992847442627 213 255 0 249 7
6.05087852478027344 7.00671863555908203 0.567499995231628418 213 255 0 249 7
6.00481033325195312 7.08817005157470703 0.732223272323608398 213 255 0 249 7
6.0190887451171875 7.10500001907348633 0.764999985694885254 213 255 0 249 7
6.02274179458618164 7.08425998687744141 0.754397988319396973 213 255 0 249 7
6.0136561393737793 7.10632514953613281 0.746863961219787598 213 255 0 249 7
5.90688228607177734 7.41463088989257812 0.749023377895355225 213 255 0 249 7
5.9151759147644043 7.41869926452636719 0.773029625415802002 213 255 0 249 7
5.91261100769042969 7.41954565048217773 0.941734135150909424 213 255 0 249 7
5.92710113525390625 7.33706045150756836 0.676936924457550049 213 255 0 249 7
5.92048072814941406 7.34749984741210938 0.586249947547912598 213 255 0 249 7
5.94201755523681641 7.31499958038330078 0.58437502384185791 213 255 0 249 7
6.12495803833007812 6.82508277893066406 0.738338232040405273 213 255 0 249 7
5.92130088806152344 7.35687494277954102 0.70468747615814209 213 255 0 249 7
5.94009208679199219 7.31106472015380859 0.755040884017944336 213 255 0 249 7
6.03958988189697266 7.03999996185302734 0.610000014305114746 213 255 0 249 7
6.03845596313476562 7.03226470947265625 0.6960715651512146 213 255 0 249 7
6.02658557891845703 7.06736421585083008 0.724125802516937256 213 255 0 249 7
6.072174072265625 6.94250011444091797 0.754999995231628418 213 255 0 249 7
5.98510980606079102 7.19929027557373047 0.765033125877380371 213 255 0 249 7
5.95183897018432617 7.29044532775878906 0.600937485694885254 213 255 0 249 7
5.98129844665527344 7.20499992370605469 0.607499957084655762 213 255 0 249 7
6.06332778930664062 6.95624971389770508 0.455624997615814209 213 255 0 249 7
6.06551361083984375 6.96849822998046875 0.605000019073486328 213 255 0 249 7
6.07535314559936523 6.91988754272460938 0.698117971420288086 213 255 0 249 7
6.0797572135925293 6.90397882461547852 0.681285500526428223 213 255 0 249 7
6.07949304580688477 6.92898178100585938 0.66461712121963501 213 255 0 249 7
6.08121299743652344 6.90514039993286133 0.710624933242797852 213 255 0 249 7
5.82845258712768555 7.64916610717773438 0.204825416207313538 213 255 0 249 7
5.81847143173217773 7.68730068206787109 0.192324742674827576 213 255 0 249 7
5.84064006805419922 7.60500001907348633 0.410312473773956299 213 255 0 249 7
5.86577796936035156 7.51116943359375 0.304836660623550415 213 255 0 249 7
5.85702896118164062 7.55313825607299805 0.385625004768371582 213 255 0 249 7
5.82604646682739258 7.83276033401489258 0.14807988703250885 213 255 0 249 7
5.83575057983398438 7.5813446044921875 0.245613992214202881 213 255 0 249 7
5.82961225509643555 7.81941795349121094 0.134350478649139404 213 255 0 249 7
5.8668055534362793 7.72423267364501953 0.136487945914268494 213 255 0 249 7
5.87834072113037109 7.68895483016967773 0.148786500096321106 213 255 0 249 7
5.90757894515991211 7.49572229385375977 0.162092074751853943 213 255 0 249 7
5.87678194046020508 7.58717203140258789 0.161537498235702515 213 255 0 249 7
5.88890409469604492 7.50895977020263672 0.183581501245498657 213 255 0 249 7
5.89681005477905273 7.52600193023681641 0.164183109998703003 213 255 0 249 7
5.84873294830322266 7.56722307205200195 0.221005737781524658 213 255 0 249 7
5.88724422454833984 7.55240249633789062 0.164832025766372681 213 255 0 249 7
5.86422014236450195 7.59088039398193359 0.179758340120315552 213 255 0 249 7
5.80738449096679688 7.8775944709777832 0.137270182371139526 213 255 0 249 7
5.81131219863891602 7.86479282379150391 0.151087850332260132 213 255 0 249 7
5.86079311370849609 7.6962733268737793 0.171120896935462952 213 255 0 249 7
5.85798168182373047 7.74092626571655273 0.149572998285293579 213 255 0 249 7
5.81378364562988281 7.65291881561279297 0.229780882596969604 213 255 0 249 7
5.84230756759643555 7.75447654724121094 0.169404804706573486 213 255 0 249 7
5.86359405517578125 7.53012514114379883 0.390937507152557373 213 255 0 249 7
5.91553258895874023 7.53671026229858398 0.168145850300788879 213 255 0 249 7
5.85521125793457031 7.65105199813842773 0.164406418800354004 213 255 0 249 7
5.87726259231567383 7.65038871765136719 0.170433133840560913 213 255 0 249 7
5.85067510604858398 7.61523962020874023 0.18936493992805481 213 255 0 249 7
5.8978118896484375 7.59026241302490234 0.169710010290145874 213 255 0 249 7
5.86798334121704102 7.61574363708496094 0.165651455521583557 213 255 0 249 7
5.85514640808105469 7.56300497055053711 0.486874997615814209 213 255 0 249 7
5.78148889541625977 7.94246196746826172 0.125539854168891907 213 255 0 249 7
5.78376865386962891 7.94374561309814453 0.149757206439971924 213 255 0 249 7
5.92103433609008789 7.58100223541259766 0.129077285528182983 213 255 0 249 7
5.90822315216064453 7.59659528732299805 0.149478331208229065 213 255 0 249 7
5.84111404418945312 7.56727504730224609 0.27571338415145874 213 255 0 249 7
5.82365322113037109 7.61836767196655273 0.237816691398620605 213 255 0 249 7
5.90791130065917969 7.61227035522460938 0.135083675384521484 213 255 0 249 7
5.83558893203735352 7.61553335189819336 0.299975037574768066 213 255 0 249 7
5.84521007537841797 7.58749961853027344 0.32374998927116394 213 255 0 249 7
5.8766627311706543 7.48977231979370117 0.824294447898864746 213 255 0 249 7
5.79733514785766602 7.73153448104858398 0.864560127258300781 213 255 0 249 7
5.86862421035766602 7.52249956130981445 0.61874997615814209 213 255 0 249 7
5.84254741668701172 7.61719608306884766 0.894999980926513672 213 255 0 249 7
5.83759260177612305 7.60325050354003906 0.739921808242797852 213 255 0 249 7
5.80967569351196289 7.68843317031860352 0.71314316987991333 213 255 0 249 7
5.81800508499145508 7.66268777847290039 0.760901927947998047 213 255 0 249 7
5.84010505676269531 7.61249971389770508 0.547500014305114746 213 255 0 249 7
5.8617711067199707 7.53253746032714844 0.766121029853820801 213 255 0 249 7
5.84914636611938477 7.5640254020690918 0.714869260787963867 213 255 0 249 7
5.87299585342407227 7.48966836929321289 0.708137154579162598 213 255 0 249 7
5.77374601364135742 7.82045984268188477 0.894999980926513672 213 255 0 249 7
5.82558870315551758 7.66317272186279297 0.864826679229736328 213 255 0 249 7
5.79373979568481445 7.7301020622253418 0.719867944717407227 213 255 0 249 7
5.78470611572265625 7.78436040878295898 0.845032095909118652 213 255 0 249 7
5.78710269927978516 7.78168916702270508 0.860300183296203613 213 255 0 249 7
5.79231357574462891 7.75675296783447266 0.844326019287109375 213 255 0 249 7
5.76770877838134766 7.816741943359375 0.83489990234375 213 255 0 249 7
5.84275293350219727 7.61135387420654297 0.678586304187774658 213 255 0 249 7
5.83555078506469727 7.62742280960083008 0.678726136684417725 213 255 0 249 7
5.85279417037963867 7.55827999114990234 0.814999997615814209 213 255 0 249 7
5.85493803024291992 7.55334186553955078 0.825172781944274902 213 255 0 249 7
