ply
format ascii 1.0
element vertex 607
property float x
property float y
property float z
property uchar red
property uchar green
property uchar blue
property uchar alpha
property uint label
end_header
6.54029417037963867 7.20613908767700195 1.19689583778381348 255 0 246 61 195
6.44399833679199219 7.42479801177978516 1.21511995792388916 255 0 246 61 195
6.29361248016357422 6.86519479751586914 0.957175791263580322 255 0 246 61 195
6.45244932174682617 7.27713918685913086 1.15289163589477539 255 0 246 61 195
6.48687553405761719 7.3020024299621582 1.16598308086395264 255 0 246 61 195
6.23164749145507812 7.25600147247314453 1.02836847305297852 255 0 246 61 195
6.24399566650390625 7.26228094100952148 0.994576215744018555 255 0 246 61 195
6.27950239181518555 7.16984748840332031 1.00545406341552734 255 0 246 61 195
6.25135707855224609 7.23608207702636719 1.00532126426696777 255 0 246 61 195
6.28242301940917969 7.19385814666748047 0.99432528018951416 255 0 246 61 195
6.21470785140991211 7.31923341751098633 1.09192287921905518 255 0 246 61 195
6.21794414520263672 7.31065750122070312 1.07488608360290527 255 0 246 61 195
6.20051050186157227 7.33859443664550781 1.09384620189666748 255 0 246 61 195
6.23250532150268555 7.28765392303466797 1.08315384387969971 255 0 246 61 195
6.19787406921386719 7.34040069580078125 1.0597224235534668 255 0 246 61 195
6.23770999908447266 7.30511140823364258 1.06570017337799072 255 0 246 61 195
6.22748947143554688 7.31395673751831055 1.04914486408233643 255 0 246 61 195
6.20945549011230469 7.34810256958007812 1.03581058979034424 255 0 246 61 195
6.24031829833984375 7.31644296646118164 1.03398215770721436 255 0 246 61 195
6.52971553802490234 7.05516242980957031 1.09957373142242432 255 0 246 61 195
6.46857643127441406 7.06902837753295898 1.09252762794494629 255 0 246 61 195
6.51488685607910156 7.03020954132080078 1.08396697044372559 255 0 246 61 195
6.48836135864257812 7.10494136810302734 1.0937187671661377 255 0 246 61 195
6.46670055389404297 7.09147834777832031 1.08645236492156982 255 0 246 61 195
6.45869731903076172 7.04951000213623047 1.0702211856842041 255 0 246 61 195
6.39660406112670898 7.04864406585693359 1.07512342929840088 255 0 246 61 195
6.44978952407836914 7.07304477691650391 1.08221232891082764 255 0 246 61 195
6.49379253387451172 6.9581451416015625 0.968713998794555664 255 0 246 61 195
6.49727773666381836 6.97706890106201172 1.02666759490966797 255 0 246 61 195
6.48640727996826172 6.96890783309936523 1.00851523876190186 255 0 246 61 195
6.48225164413452148 6.95346260070800781 0.933106362819671631 255 0 246 61 195
6.44894599914550781 6.88489103317260742 0.947505831718444824 255 0 246 61 195
6.2552180290222168 6.91923332214355469 0.954696059226989746 255 0 246 61 195
6.25373697280883789 6.94430351257324219 0.947450160980224609 255 0 246 61 195
6.50295352935791016 7.44500923156738281 1.06507015228271484 255 0 246 61 195
6.49218368530273438 7.54056024551391602 1.06159114837646484 255 0 246 61 195
6.5119786262512207 7.45451450347900391 1.07237339019775391 255 0 246 61 195
6.52675819396972656 7.45081233978271484 1.08973181247711182 255 0 246 61 195
6.51628828048706055 7.48723268508911133 1.08495068550109863 255 0 246 61 195
6.51230430603027344 7.45299625396728516 1.01031136512756348 255 0 246 61 195
6.45304346084594727 6.971771240234375 1.05378592014312744 255 0 246 61 195
6.41911745071411133 6.96562528610229492 1.04982531070709229 255 0 246 61 195
6.35196876525878906 7.04358386993408203 1.15152990818023682 255 0 246 61 195
6.40213918685913086 7.04056072235107422 1.1547694206237793 255 0 246 61 195
6.32521629333496094 7.07601118087768555 1.19189918041229248 255 0 246 61 195
6.32215690612792969 7.03280115127563477 1.12658262252807617 255 0 246 61 195
6.33025979995727539 7.04641580581665039 1.12560606002807617 255 0 246 61 195
6.34961271286010742 7.05628681182861328 1.17045974731445312 255 0 246 61 195
6.39725017547607422 7.06370878219604492 1.17348670959472656 255 0 246 61 195
6.21882390975952148 7.27986049652099609 1.01430988311767578 255 0 246 61 195
6.23950052261352539 7.2311406135559082 1.0153961181640625 255 0 246 61 195
6.34240102767944336 7.2195734977722168 1.09716582298278809 255 0 246 61 195
6.3659214973449707 7.20428705215454102 1.08659398555755615 255 0 246 61 195
6.3830723762512207 7.22889280319213867 1.08543789386749268 255 0 246 61 195
6.32415437698364258 7.28125476837158203 1.09414660930633545 255 0 246 61 195
6.29710054397583008 7.25023937225341797 1.11442053318023682 255 0 246 61 195
6.3478693962097168 7.24604463577270508 1.08927905559539795 255 0 246 61 195
6.39152097702026367 7.26120185852050781 1.08848798274993896 255 0 246 61 195
6.26044845581054688 7.32357454299926758 1.13578319549560547 255 0 246 61 195
6.27277994155883789 7.26317787170410156 1.11557519435882568 255 0 246 61 195
6.27317714691162109 7.30847263336181641 1.12281513214111328 255 0 246 61 195
6.23768329620361328 7.31954860687255859 1.1595923900604248 255 0 246 61 195
6.30832004547119141 7.32672405242919922 1.09070289134979248 255 0 246 61 195
6.27914285659790039 7.29871606826782227 1.14494109153747559 255 0 246 61 195
6.25620651245117188 7.30902576446533203 1.18169701099395752 255 0 246 61 195
6.2374415397644043 7.31777381896972656 1.20442402362823486 255 0 246 61 195
6.29269075393676758 7.07015085220336914 1.01553976535797119 255 0 246 61 195
6.51140689849853516 7.33175992965698242 1.18441271781921387 255 0 246 61 195
6.52385616302490234 7.3011322021484375 1.20946419239044189 255 0 246 61 195
6.24187135696411133 7.3036503791809082 1.11635947227478027 255 0 246 61 195
6.23667764663696289 7.32908916473388672 1.18547260761260986 255 0 246 61 195
6.21391487121582031 7.33646154403686523 1.12981963157653809 255 0 246 61 195
6.22611570358276367 7.34048795700073242 1.15114450454711914 255 0 246 61 195
6.25410366058349609 6.8829345703125 0.957049727439880371 255 0 246 61 195
6.29005527496337891 6.91770553588867188 0.957047522068023682 255 0 246 61 195
6.2469325065612793 7.01935672760009766 0.945889115333557129 255 0 246 61 195
6.40428686141967773 7.30965423583984375 1.04684603214263916 255 0 246 61 195
6.37223911285400391 7.30330657958984375 1.07585012912750244 255 0 246 61 195
6.4322667121887207 7.35385704040527344 1.06183493137359619 255 0 246 61 195
6.44782543182373047 7.29302549362182617 1.09072697162628174 255 0 246 61 195
6.47251415252685547 7.29983377456665039 1.11563587188720703 255 0 246 61 195
6.46351289749145508 7.31065654754638672 1.10503029823303223 255 0 246 61 195
6.44485855102539062 7.32469034194946289 1.08676731586456299 255 0 246 61 195
6.39954948425292969 7.2968754768371582 1.08216321468353271 255 0 246 61 195
6.44239711761474609 7.35771703720092773 1.07734322547912598 255 0 246 61 195
6.40801906585693359 7.03318309783935547 1.14359629154205322 255 0 246 61 195
6.42042732238769531 6.97587966918945312 1.12896263599395752 255 0 246 61 195
6.41806268692016602 7.01048040390014648 1.18444252014160156 255 0 246 61 195
6.39818572998046875 6.95846652984619141 1.18510222434997559 255 0 246 61 195
6.41093301773071289 6.96602153778076172 1.19426095485687256 255 0 246 61 195
6.43006372451782227 6.98707771301269531 1.19758450984954834 255 0 246 61 195
6.42006540298461914 6.97128057479858398 1.15435564517974854 255 0 246 61 195
6.51763486862182617 7.22240781784057617 1.14244294166564941 255 0 246 61 195
6.53842735290527344 7.1924138069152832 1.13700079917907715 255 0 246 61 195
6.54488754272460938 7.24082851409912109 1.13469219207763672 255 0 246 61 195
6.50563526153564453 7.26088380813598633 1.13685417175292969 255 0 246 61 195
6.47596263885498047 7.27566957473754883 1.13463163375854492 255 0 246 61 195
6.52014827728271484 7.25524139404296875 1.19476854801177979 255 0 246 61 195
6.5430750846862793 7.27283811569213867 1.12184798717498779 255 0 246 61 195
6.30624723434448242 7.10641670227050781 0.994737327098846436 255 0 246 61 195
6.27571535110473633 7.13506889343261719 1.01419568061828613 255 0 246 61 195
6.25700759887695312 7.18939685821533203 1.01546835899353027 255 0 246 61 195
6.27451705932617188 7.14139318466186523 1.02512764930725098 255 0 246 61 195
6.34633493423461914 7.07825994491577148 1.04520833492279053 255 0 246 61 195
6.31708955764770508 7.0353856086730957 1.09747767448425293 255 0 246 61 195
6.39840507507324219 7.03475761413574219 1.11769115924835205 255 0 246 61 195
6.31439638137817383 7.05232429504394531 1.08272624015808105 255 0 246 61 195
6.34501886367797852 7.04284048080444336 1.0912623405456543 255 0 246 61 195
6.37001132965087891 7.06023502349853516 1.08130478858947754 255 0 246 61 195
6.33265876770019531 7.09029436111450195 1.03937363624572754 255 0 246 61 195
6.32987785339355469 7.08002471923828125 1.05301940441131592 255 0 246 61 195
6.34003686904907227 7.10598230361938477 1.09244966506958008 255 0 246 61 195
6.41100597381591797 7.07212257385253906 1.08159887790679932 255 0 246 61 195
6.4419093132019043 7.38079357147216797 1.05903315544128418 255 0 246 61 195
6.45958471298217773 7.42369747161865234 1.03623425960540771 255 0 246 61 195
6.40895557403564453 7.39040088653564453 1.07411789894104004 255 0 246 61 195
6.4425969123840332 7.3767242431640625 1.08096146583557129 255 0 246 61 195
6.43505382537841797 7.40928745269775391 1.07047855854034424 255 0 246 61 195
6.46822357177734375 7.41324806213378906 1.10526573657989502 255 0 246 61 195
6.45956516265869141 7.42338228225708008 1.07374227046966553 255 0 246 61 195
6.4655919075012207 7.3648223876953125 1.09709489345550537 255 0 246 61 195
6.4500727653503418 7.40949678421020508 1.08893430233001709 255 0 246 61 195
6.41679716110229492 7.38662052154541016 1.07713210582733154 255 0 246 61 195
6.50341939926147461 7.37198400497436523 1.15300965309143066 255 0 246 61 195
6.49218130111694336 7.42605352401733398 1.18819832801818848 255 0 246 61 195
6.51006126403808594 7.35563945770263672 1.17999768257141113 255 0 246 61 195
6.48204946517944336 7.41083049774169922 1.14948415756225586 255 0 246 61 195
6.48890304565429688 7.4228510856628418 1.17593443393707275 255 0 246 61 195
6.50181961059570312 7.40650129318237305 1.20183145999908447 255 0 246 61 195
6.50494575500488281 7.4368896484375 1.20253098011016846 255 0 246 61 195
6.34020900726318359 6.99548578262329102 1.14892256259918213 255 0 246 61 195
6.33724260330200195 7.04135656356811523 1.16895937919616699 255 0 246 61 195
6.31877756118774414 6.98915004730224609 1.12421393394470215 255 0 246 61 195
6.36930227279663086 6.97188663482666016 1.13654232025146484 255 0 246 61 195
6.33827829360961914 6.97217702865600586 1.1150134801864624 255 0 246 61 195
6.37380743026733398 6.96434116363525391 1.17057979106903076 255 0 246 61 195
6.34161472320556641 6.98844623565673828 1.17926692962646484 255 0 246 61 195
6.36641311645507812 6.98827123641967773 1.19375991821289062 255 0 246 61 195
6.42472553253173828 7.17431354522705078 1.14825975894927979 255 0 246 61 195
6.43318557739257812 7.17179679870605469 1.12964940071105957 255 0 246 61 195
6.38366603851318359 7.16884946823120117 1.14398717880249023 255 0 246 61 195
6.47876358032226562 7.16858768463134766 1.11875224113464355 255 0 246 61 195
6.44225215911865234 7.1308293342590332 1.09603679180145264 255 0 246 61 195
6.42589330673217773 7.1910099983215332 1.1661219596862793 255 0 246 61 195
6.47719526290893555 7.17484951019287109 1.14023375511169434 255 0 246 61 195
6.35617256164550781 6.88274860382080078 0.959254920482635498 255 0 246 61 195
6.45819997787475586 7.2545619010925293 1.08679056167602539 255 0 246 61 195
6.51080322265625 7.1608424186706543 1.09608876705169678 255 0 246 61 195
6.49541997909545898 7.17110061645507812 1.08476901054382324 255 0 246 61 195
6.31586551666259766 7.01558208465576172 0.99669957160949707 255 0 246 61 195
6.39728927612304688 6.94821977615356445 1.09535360336303711 255 0 246 61 195
6.40825033187866211 7.01450681686401367 1.08968102931976318 255 0 246 61 195
6.4265904426574707 7.01333951950073242 1.07408344745635986 255 0 246 61 195
6.41501379013061523 7.03424310684204102 1.06660628318786621 255 0 246 61 195
6.43039941787719727 6.98595714569091797 1.07140922546386719 255 0 246 61 195
6.4093632698059082 6.9871363639831543 1.08778214454650879 255 0 246 61 195
6.30190277099609375 7.05118036270141602 1.07111823558807373 255 0 246 61 195
6.29250240325927734 7.10953760147094727 1.07601082324981689 255 0 246 61 195
6.28744077682495117 7.09026336669921875 1.03400039672851562 255 0 246 61 195
6.30124568939208984 7.06147336959838867 1.04417598247528076 255 0 246 61 195
6.28643703460693359 7.11917400360107422 1.03795456886291504 255 0 246 61 195
6.309539794921875 7.0765228271484375 1.08257102966308594 255 0 246 61 195
6.30011463165283203 7.07437801361083984 1.07443439960479736 255 0 246 61 195
6.20902061462402344 7.3102107048034668 1.02556848526000977 255 0 246 61 195
6.20166254043579102 7.32881879806518555 1.01045167446136475 255 0 246 61 195
6.21690034866333008 7.30286502838134766 0.99698030948638916 255 0 246 61 195
6.19560337066650391 7.34674358367919922 0.996388673782348633 255 0 246 61 195
6.44771718978881836 6.94732570648193359 0.962908923625946045 255 0 246 61 195
6.40377569198608398 7.31868457794189453 1.06850719451904297 255 0 246 61 195
6.34743642807006836 7.29522418975830078 1.04551780223846436 255 0 246 61 195
6.36627435684204102 7.296875 1.06260263919830322 255 0 246 61 195
6.3345184326171875 7.3521265983581543 1.08241569995880127 255 0 246 61 195
6.33383941650390625 7.32219314575195312 1.07649922370910645 255 0 246 61 195
6.34409999847412109 7.29322338104248047 1.08428323268890381 255 0 246 61 195
6.39655399322509766 7.30769157409667969 1.0366969108581543 255 0 246 61 195
6.19628477096557617 7.350799560546875 1.02379202842712402 255 0 246 61 195
6.45876884460449219 6.90185689926147461 0.954913794994354248 255 0 246 61 195
6.42091989517211914 6.95697450637817383 1.00060319900512695 255 0 246 61 195
6.42665386199951172 6.9120488166809082 0.958600997924804688 255 0 246 61 195
6.28640270233154297 7.22183370590209961 1.09766292572021484 255 0 246 61 195
6.26555347442626953 7.19035005569458008 1.08898413181304932 255 0 246 61 195
6.29593944549560547 7.24003887176513672 1.0445706844329834 255 0 246 61 195
6.2781682014465332 7.26988458633422852 1.04418647289276123 255 0 246 61 195
6.28826808929443359 7.21098232269287109 1.03798568248748779 255 0 246 61 195
6.23831748962402344 7.23128700256347656 1.03629159927368164 255 0 246 61 195
6.25638103485107422 7.17914819717407227 1.03613042831420898 255 0 246 61 195
6.26523399353027344 7.22960329055786133 1.06746304035186768 255 0 246 61 195
6.24966955184936523 7.23148488998413086 1.07587182521820068 255 0 246 61 195
6.30882740020751953 7.02445363998413086 1.01552605628967285 255 0 246 61 195
6.32534217834472656 6.97971677780151367 0.993814229965209961 255 0 246 61 195
6.33665800094604492 6.97530412673950195 1.015633225440979 255 0 246 61 195
6.3819127082824707 6.95216989517211914 1.04635035991668701 255 0 246 61 195
6.22989797592163086 6.98341751098632812 0.94986724853515625 255 0 246 61 195
6.26841545104980469 6.98919534683227539 0.945501446723937988 255 0 246 61 195
6.47329807281494141 7.27628707885742188 1.09897458553314209 255 0 246 61 195
6.53528022766113281 7.26628255844116211 1.09909904003143311 255 0 246 61 195
6.5312347412109375 7.18005132675170898 1.09261131286621094 255 0 246 61 195
6.48743581771850586 7.21110296249389648 1.08624505996704102 255 0 246 61 195
6.49760055541992188 7.23099899291992188 1.08964741230010986 255 0 246 61 195
6.39345359802246094 6.95148038864135742 1.00742197036743164 255 0 246 61 195
6.39358377456665039 6.88679885864257812 0.956800997257232666 255 0 246 61 195
6.31639432907104492 6.92123842239379883 0.956228852272033691 255 0 246 61 195
6.39036655426025391 6.93198394775390625 0.954500019550323486 255 0 246 61 195
6.49276447296142578 6.99172782897949219 1.06843161582946777 255 0 246 61 195
6.47192573547363281 7.01853656768798828 1.07764053344726562 255 0 246 61 195
6.52071380615234375 7.0142369270324707 1.07968699932098389 255 0 246 61 195
6.31010150909423828 7.35206937789916992 1.09747481346130371 255 0 246 61 195
6.2400212287902832 7.28609132766723633 1.03452646732330322 255 0 246 61 195
6.31025457382202148 7.28030872344970703 1.11763334274291992 255 0 246 61 195
6.25355958938598633 7.28535938262939453 1.09480535984039307 255 0 246 61 195
6.2503962516784668 7.29801177978515625 1.05472707748413086 255 0 246 61 195
6.25777816772460938 7.27280426025390625 1.04428541660308838 255 0 246 61 195
6.48465681076049805 7.32799816131591797 1.11944711208343506 255 0 246 61 195
6.49248695373535156 7.37153291702270508 1.12019121646881104 255 0 246 61 195
6.50628757476806641 7.28240728378295898 1.11227583885192871 255 0 246 61 195
6.43063735961914062 7.31966161727905273 0.988525271415710449 255 0 246 61 195
6.42890310287475586 7.34454917907714844 0.984665095806121826 255 0 246 61 195
6.41840744018554688 7.3193211555480957 1.00836098194122314 255 0 246 61 195
6.44847631454467773 7.3879547119140625 1.02788710594177246 255 0 246 61 195
6.42575359344482422 7.34650421142578125 1.03314864635467529 255 0 246 61 195
6.34334468841552734 6.93776321411132812 0.945339441299438477 255 0 246 61 195
6.39455556869506836 6.94271945953369141 0.942865133285522461 255 0 246 61 195
6.3105316162109375 6.93545436859130859 0.945430994033813477 255 0 246 61 195
6.47737789154052734 7.19931793212890625 1.15505778789520264 255 0 246 61 195
6.45519638061523438 7.22962713241577148 1.16397213935852051 255 0 246 61 195
6.45688915252685547 7.25504779815673828 1.15342855453491211 255 0 246 61 195
6.44555568695068359 7.24629735946655273 1.1670072078704834 255 0 246 61 195
6.32060909271240234 6.98738002777099609 1.03049814701080322 255 0 246 61 195
6.3060603141784668 6.98741722106933594 1.06671011447906494 255 0 246 61 195
6.31084156036376953 7.02256345748901367 1.06575584411621094 255 0 246 61 195
6.37765789031982422 7.11482906341552734 1.09429383277893066 255 0 246 61 195
6.40098714828491211 7.11868572235107422 1.08985650539398193 255 0 246 61 195
6.30923891067504883 7.16990756988525391 1.09114933013916016 255 0 246 61 195
6.38486719131469727 7.15628862380981445 1.08512687683105469 255 0 246 61 195
6.35568666458129883 7.17826366424560547 1.09494984149932861 255 0 246 61 195
6.31721687316894531 7.13178539276123047 1.03943479061126709 255 0 246 61 195
6.33013153076171875 7.1353154182434082 1.04496335983276367 255 0 246 61 195
6.4698638916015625 7.43418025970458984 1.0227208137512207 255 0 246 61 195
6.24359989166259766 7.272003173828125 1.20599305629730225 255 0 246 61 195
6.50438356399536133 7.43683433532714844 1.12826633453369141 255 0 246 61 195
6.54481172561645508 7.45827865600585938 1.10774338245391846 255 0 246 61 195
6.5422515869140625 7.45513439178466797 1.15029227733612061 255 0 246 61 195
6.52519321441650391 7.44495773315429688 1.13160169124603271 255 0 246 61 195
6.31390905380249023 7.21119213104248047 1.10134971141815186 255 0 246 61 195
6.31306982040405273 7.15665149688720703 1.04952621459960938 255 0 246 61 195
6.31258678436279297 7.15478801727294922 1.09045088291168213 255 0 246 61 195
6.30715036392211914 7.18325042724609375 1.04563546180725098 255 0 246 61 195
6.25934028625488281 7.18051052093505859 1.0744483470916748 255 0 246 61 195
6.28782844543457031 7.14080238342285156 1.07541394233703613 255 0 246 61 195
6.30785703659057617 7.16207218170166016 1.03365635871887207 255 0 246 61 195
6.48277473449707031 7.42501926422119141 1.12365531921386719 255 0 246 61 195
6.41376304626464844 6.94990730285644531 1.07448375225067139 255 0 246 61 195
6.39616155624389648 7.07537221908569336 1.19740390777587891 255 0 246 61 195
6.40724849700927734 7.04870939254760742 1.19645082950592041 255 0 246 61 195
6.54088211059570312 6.95880365371704102 0.930386245250701904 255 0 246 61 195
6.42155551910400391 6.94628143310546875 1.133323073387146 255 0 246 61 195
6.40370988845825195 6.95222806930541992 1.12454891204833984 255 0 246 61 195
6.43414163589477539 6.94682502746582031 1.18635988235473633 255 0 246 61 195
6.40639400482177734 6.94502067565917969 1.15964090824127197 255 0 246 61 195
6.32870912551879883 6.97440576553344727 1.05947589874267578 255 0 246 61 195
6.34695291519165039 6.97441625595092773 1.08775675296783447 255 0 246 61 195
6.32858991622924805 6.99059152603149414 1.09334456920623779 255 0 246 61 195
6.47352361679077148 7.14775514602661133 1.09550154209136963 255 0 246 61 195
6.43104219436645508 7.16071271896362305 1.08432400226593018 255 0 246 61 195
6.40742397308349609 7.21065092086791992 1.08635115623474121 255 0 246 61 195
6.44629287719726562 7.15008735656738281 1.11221230030059814 255 0 246 61 195
6.52074289321899414 7.17267704010009766 1.13147521018981934 255 0 246 61 195
6.50920534133911133 6.9040069580078125 0.949131906032562256 255 0 246 61 195
6.22731637954711914 6.93004417419433594 0.951103091239929199 255 0 246 61 195
6.20026111602783203 6.95102691650390625 0.950905799865722656 255 0 246 61 195
6.49032020568847656 7.33038711547851562 1.15112543106079102 255 0 246 61 195
6.51528310775756836 7.28548908233642578 1.18858766555786133 255 0 246 61 195
6.46736955642700195 7.63579845428466797 1.01740515232086182 255 0 246 61 195
6.47831821441650391 7.60744047164916992 1.01746702194213867 255 0 246 61 195
6.5088496208190918 7.48612594604492188 1.00770902633666992 255 0 246 61 195
6.4582209587097168 7.63518142700195312 1.06923389434814453 255 0 246 61 195
6.49353933334350586 7.53697490692138672 1.00428378582000732 255 0 246 61 195
6.49246120452880859 7.56600856781005859 1.00628840923309326 255 0 246 61 195
6.49011802673339844 7.56131696701049805 1.02812111377716064 255 0 246 61 195
6.48441171646118164 7.57312154769897461 1.07465803623199463 255 0 246 61 195
6.50893402099609375 7.48710870742797852 1.07413971424102783 255 0 246 61 195
6.49919652938842773 7.54424333572387695 1.08501040935516357 255 0 246 61 195
6.52855730056762695 7.50765275955200195 1.09546411037445068 255 0 246 61 195
6.46597099304199219 7.63347864151000977 1.0862276554107666 255 0 246 61 195
6.49996757507324219 7.58430671691894531 1.09551835060119629 255 0 246 61 195
6.55273294448852539 7.17561769485473633 1.10628116130828857 255 0 246 61 195
6.56772136688232422 6.956024169921875 0.952398836612701416 255 0 246 61 195
6.5356745719909668 7.44458913803100586 1.2106698751449585 255 0 246 61 195
6.57001686096191406 7.03645944595336914 1.09563004970550537 255 0 246 61 195
6.59399509429931641 7.04230356216430664 1.10904431343078613 255 0 246 61 195
6.55582237243652344 6.98222112655639648 1.0224536657333374 255 0 246 61 195
6.58231973648071289 6.96931219100952148 1.00246930122375488 255 0 246 61 195
6.57602787017822266 6.95804262161254883 0.980906903743743896 255 0 246 61 195
6.56530332565307617 7.23115825653076172 1.10545706748962402 255 0 246 61 195
6.56442356109619141 7.22724723815917969 1.12433433532714844 255 0 246 61 195
6.56922292709350586 7.03859043121337891 1.11970365047454834 255 0 246 61 195
6.60695362091064453 7.05441188812255859 1.13072407245635986 255 0 246 61 195
6.52024364471435547 7.05111169815063477 1.12236130237579346 255 0 246 61 195
6.54615688323974609 7.27445125579833984 1.10532855987548828 255 0 246 61 195
6.55424070358276367 7.23313140869140625 1.09556066989898682 255 0 246 61 195
6.55157852172851562 7.00136661529541016 1.0690004825592041 255 0 246 61 195
6.58063268661499023 7.01986885070800781 1.08855116367340088 255 0 246 61 195
6.6041107177734375 6.98542976379394531 1.04493069648742676 255 0 246 61 195
6.61467742919921875 7.01458024978637695 1.1031641960144043 255 0 246 61 195
6.59931278228759766 7.00022172927856445 1.06935799121856689 255 0 246 61 195
6.56303644180297852 6.98984670639038086 1.04735386371612549 255 0 246 61 195
6.55141735076904297 7.17536354064941406 1.12411189079284668 255 0 246 61 195
6.43197870254516602 7.39905500411987305 1.21232795715332031 255 0 246 61 195
6.47583484649658203 7.40514421463012695 1.21388852596282959 255 0 246 61 195
6.41601419448852539 7.41518592834472656 1.21527695655822754 255 0 246 61 195
6.46859884262084961 7.41396093368530273 1.20461905002593994 255 0 246 61 195
6.44671821594238281 7.39890575408935547 1.22480630874633789 255 0 246 61 195
6.37174367904663086 7.38738727569580078 1.2313847541809082 255 0 246 61 195
6.40415334701538086 7.41520929336547852 1.22517526149749756 255 0 246 61 195
6.46224594116210938 7.41855430603027344 1.22516548633575439 255 0 246 61 195
6.38968133926391602 7.37132406234741211 1.22616767883300781 255 0 246 61 195
6.37731266021728516 7.33093023300170898 1.22570919990539551 255 0 246 61 195
6.36636209487915039 7.32564973831176758 1.21538388729095459 255 0 246 61 195
6.36234426498413086 7.33483648300170898 1.23311793804168701 255 0 246 61 195
6.35338544845581055 7.34695959091186523 1.20596623420715332 255 0 246 61 195
6.37612533569335938 7.28718662261962891 1.21405994892120361 255 0 246 61 195
6.3135528564453125 7.29066658020019531 1.23373496532440186 255 0 246 61 195
6.36956024169921875 7.28884601593017578 1.23678910732269287 255 0 246 61 195
6.37049436569213867 7.31052875518798828 1.23213648796081543 255 0 246 61 195
6.40094804763793945 7.27115821838378906 1.22582852840423584 255 0 246 61 195
6.52249574661254883 7.43692684173583984 1.21454131603240967 255 0 246 61 195
6.31190967559814453 7.32052946090698242 1.0299522876739502 255 0 246 61 195
6.28989315032958984 7.30121755599975586 1.02463304996490479 255 0 246 61 195
6.22480440139770508 7.3827509880065918 1.07171952724456787 255 0 246 61 195
6.19540739059448242 7.35744190216064453 1.0633246898651123 255 0 246 61 195
6.20516157150268555 7.35904455184936523 1.12323057651519775 255 0 246 61 195
6.31728744506835938 7.35048770904541016 1.15001416206359863 255 0 246 61 195
6.52102184295654297 7.33447122573852539 1.22275412082672119 255 0 246 61 195
6.51261997222900391 7.37263059616088867 1.21092259883880615 255 0 246 61 195
6.54702377319335938 7.30616426467895508 1.22050118446350098 255 0 246 61 195
6.21342611312866211 7.36175966262817383 1.15490174293518066 255 0 246 61 195
6.36742639541625977 7.15840244293212891 1.22441935539245605 255 0 246 61 195
6.40767192840576172 7.01392889022827148 1.20256972312927246 255 0 246 61 195
6.33128118515014648 7.14089870452880859 1.21829557418823242 255 0 246 61 195
6.39332294464111328 7.0458064079284668 1.21434831619262695 255 0 246 61 195
6.35563802719116211 7.10675668716430664 1.219382643699646 255 0 246 61 195
6.24418497085571289 7.39467763900756836 1.05972051620483398 255 0 246 61 195
6.2714686393737793 7.40324640274047852 1.05723130702972412 255 0 246 61 195
6.27221536636352539 7.39803886413574219 1.08393657207489014 255 0 246 61 195
6.28284692764282227 7.38515806198120117 1.11449670791625977 255 0 246 61 195
6.2784733772277832 7.394134521484375 1.04661130905151367 255 0 246 61 195
6.28452157974243164 7.38215494155883789 1.06643128395080566 255 0 246 61 195
6.31693506240844727 7.3602294921875 1.05950927734375 255 0 246 61 195
6.24662399291992188 7.2149658203125 1.20574164390563965 255 0 246 61 195
6.29501104354858398 7.2629246711730957 1.22663235664367676 255 0 246 61 195
6.29584503173828125 7.19250011444091797 1.21586394309997559 255 0 246 61 195
6.25983476638793945 7.30203866958618164 1.22094833850860596 255 0 246 61 195
6.51107549667358398 7.4196629524230957 1.21926701068878174 255 0 246 61 195
6.30843782424926758 7.36699104309082031 1.09154748916625977 255 0 246 61 195
6.34863138198852539 7.366851806640625 1.08043098449707031 255 0 246 61 195
6.32459115982055664 7.37705755233764648 1.07910192012786865 255 0 246 61 195
6.23619508743286133 7.36187934875488281 1.21091938018798828 255 0 246 61 195
6.27087688446044922 7.38733339309692383 1.22028052806854248 255 0 246 61 195
6.26235532760620117 7.39329433441162109 1.2007136344909668 255 0 246 61 195
6.33474254608154297 7.31940031051635742 1.06422579288482666 255 0 246 61 195
6.32034444808959961 7.32713556289672852 1.02982151508331299 255 0 246 61 195
6.31073331832885742 7.317596435546875 1.0480189323425293 255 0 246 61 195
6.21586942672729492 7.36721324920654297 1.03868389129638672 255 0 246 61 195
6.34072303771972656 7.36558246612548828 1.02671635150909424 255 0 246 61 195
6.34400033950805664 7.36421489715576172 1.00394213199615479 255 0 246 61 195
6.34343051910400391 7.39201927185058594 1.01371419429779053 255 0 246 61 195
6.31700706481933594 7.39078712463378906 1.02602827548980713 255 0 246 61 195
6.30431079864501953 7.36386346817016602 1.04201745986938477 255 0 246 61 195
6.28084421157836914 7.40176773071289062 1.16643762588500977 255 0 246 61 195
6.2966766357421875 7.41030216217041016 1.19787096977233887 255 0 246 61 195
6.31329917907714844 7.36566448211669922 1.14964878559112549 255 0 246 61 195
6.22988557815551758 7.37608194351196289 1.13745999336242676 255 0 246 61 195
6.28961277008056641 7.38521003723144531 1.1570744514465332 255 0 246 61 195
6.27383279800415039 7.39725589752197266 1.12484276294708252 255 0 246 61 195
6.29369401931762695 7.39954614639282227 1.16072738170623779 255 0 246 61 195
6.31135845184326172 7.39173030853271484 1.19509994983673096 255 0 246 61 195
6.24472665786743164 7.38121175765991211 1.16822183132171631 255 0 246 61 195
6.31147432327270508 7.37817668914794922 1.168967604637146 255 0 246 61 195
6.27639436721801758 7.13929271697998047 1.20512354373931885 255 0 246 61 195
6.33189296722412109 7.26852655410766602 1.22947835922241211 255 0 246 61 195
6.37719440460205078 7.26106357574462891 1.22876369953155518 255 0 246 61 195
6.32956933975219727 7.19668912887573242 1.22574412822723389 255 0 246 61 195
6.36217784881591797 7.24543952941894531 1.20511198043823242 255 0 246 61 195
6.37621784210205078 7.24755382537841797 1.21015143394470215 255 0 246 61 195
6.34859371185302734 7.30615615844726562 1.20500123500823975 255 0 246 61 195
6.38919973373413086 7.31064653396606445 1.01469695568084717 255 0 246 61 195
6.39753818511962891 7.3100275993347168 1.02663862705230713 255 0 246 61 195
6.34299564361572266 7.3388819694519043 1.02241420745849609 255 0 246 61 195
6.37763118743896484 7.3072199821472168 1.03427934646606445 255 0 246 61 195
6.33364057540893555 7.33512687683105469 1.02061021327972412 255 0 246 61 195
6.31942510604858398 7.27810430526733398 1.01545119285583496 255 0 246 61 195
6.35146808624267578 7.28184604644775391 0.999673902988433838 255 0 246 61 195
6.36486244201660156 7.30781984329223633 0.997347354888916016 255 0 246 61 195
6.35142707824707031 7.29865789413452148 1.00065505504608154 255 0 246 61 195
6.24619007110595703 7.38058185577392578 1.02115166187286377 255 0 246 61 195
6.30124664306640625 7.37371206283569336 1.01007914543151855 255 0 246 61 195
6.27251768112182617 7.38436651229858398 1.01788270473480225 255 0 246 61 195
6.24248647689819336 7.3242793083190918 1.21550905704498291 255 0 246 61 195
6.28949832916259766 7.34170198440551758 1.23219633102416992 255 0 246 61 195
6.25423574447631836 7.36307573318481445 1.22643887996673584 255 0 246 61 195
6.36049413681030273 7.02304506301879883 1.19731712341308594 255 0 246 61 195
6.41648149490356445 7.02586936950683594 1.20800364017486572 255 0 246 61 195
6.41961765289306641 7.06123495101928711 1.21530449390411377 255 0 246 61 195
6.40857696533203125 7.12055587768554688 1.22070527076721191 255 0 246 61 195
6.39984464645385742 7.22356414794921875 1.22367846965789795 255 0 246 61 195
6.39616107940673828 7.23671293258666992 1.22793018817901611 255 0 246 61 195
6.40181541442871094 7.1886138916015625 1.22483837604522705 255 0 246 61 195
6.32646083831787109 7.07499456405639648 1.20516443252563477 255 0 246 61 195
6.33262014389038086 7.40069103240966797 1.20592141151428223 255 0 246 61 195
6.33829498291015625 7.36688852310180664 1.19806897640228271 255 0 246 61 195
6.35688877105712891 7.39916324615478516 1.21655189990997314 255 0 246 61 195
6.38240289688110352 7.38040637969970703 1.21266329288482666 255 0 246 61 195
6.32990264892578125 7.41049957275390625 1.21546804904937744 255 0 246 61 195
6.3469395637512207 7.40061044692993164 1.22608089447021484 255 0 246 61 195
6.32357501983642578 7.37792158126831055 1.23228573799133301 255 0 246 61 195
6.55474090576171875 7.33148622512817383 1.2323758602142334 255 0 246 61 195
6.56307077407836914 7.37089776992797852 1.224517822265625 255 0 246 61 195
6.54862499237060547 7.41927385330200195 1.22575032711029053 255 0 246 61 195
6.51127958297729492 7.14226961135864258 1.2726132869720459 255 0 246 61 195
6.53472900390625 7.16631126403808594 1.25971615314483643 255 0 246 61 195
6.30557775497436523 7.12331867218017578 1.33995962142944336 255 0 246 61 195
6.30045557022094727 7.07085275650024414 1.34263086318969727 255 0 246 61 195
6.24251651763916016 7.02159833908081055 1.45699501037597656 255 0 246 61 195
6.40086746215820312 7.30371379852294922 1.27966833114624023 255 0 246 61 195
6.32095432281494141 7.27409553527832031 1.26193344593048096 255 0 246 61 195
6.31356287002563477 7.29244041442871094 1.27427196502685547 255 0 246 61 195
6.37704181671142578 7.30676651000976562 1.27525961399078369 255 0 246 61 195
6.37739658355712891 7.27871942520141602 1.25063610076904297 255 0 246 61 195
6.24839639663696289 7.12350893020629883 1.37488973140716553 255 0 246 61 195
6.25552034378051758 7.1820673942565918 1.38068783283233643 255 0 246 61 195
6.25831031799316406 7.16603803634643555 1.36502540111541748 255 0 246 61 195
6.43773317337036133 7.18227243423461914 1.28749358654022217 255 0 246 61 195
6.49188137054443359 7.217498779296875 1.27060067653656006 255 0 246 61 195
6.44000053405761719 7.25581884384155273 1.28145086765289307 255 0 246 61 195
6.40506076812744141 7.23296403884887695 1.28274881839752197 255 0 246 61 195
6.5181126594543457 7.2338099479675293 1.25623011589050293 255 0 246 61 195
6.47199583053588867 7.29330015182495117 1.27126491069793701 255 0 246 61 195
6.31398344039916992 7.01858329772949219 1.34053969383239746 255 0 246 61 195
6.25462007522583008 6.99307489395141602 1.37913179397583008 255 0 246 61 195
6.24462985992431641 7.02879238128662109 1.38583695888519287 255 0 246 61 195
6.29622745513916016 6.97096633911132812 1.35754239559173584 255 0 246 61 195
6.21931314468383789 6.97458696365356445 1.42037355899810791 255 0 246 61 195
6.44925594329833984 6.98904800415039062 1.30532515048980713 255 0 246 61 195
6.45876026153564453 7.02243423461914062 1.3036344051361084 255 0 246 61 195
6.32541036605834961 7.09458303451538086 1.32397830486297607 255 0 246 61 195
6.39243459701538086 7.05638217926025391 1.31371426582336426 255 0 246 61 195
6.38867330551147461 7.12349796295166016 1.30594050884246826 255 0 246 61 195
6.29609107971191406 6.88314676284790039 1.42160475254058838 255 0 246 61 195
6.31781196594238281 6.9057769775390625 1.39994513988494873 255 0 246 61 195
6.38932561874389648 7.26082944869995117 1.27974939346313477 255 0 246 61 195
6.32841587066650391 7.23267364501953125 1.28128218650817871 255 0 246 61 195
6.31995916366577148 7.23435544967651367 1.3480687141418457 255 0 246 61 195
6.3421783447265625 7.20483064651489258 1.31142163276672363 255 0 246 61 195
6.32978916168212891 7.2334599494934082 1.33295702934265137 255 0 246 61 195
6.33553695678710938 7.24556446075439453 1.31093370914459229 255 0 246 61 195
6.49266862869262695 7.33805036544799805 1.27263259887695312 255 0 246 61 195
6.50836324691772461 7.31076478958129883 1.25552773475646973 255 0 246 61 195
6.51912736892700195 7.32730388641357422 1.25139212608337402 255 0 246 61 195
6.30474472045898438 7.26509237289428711 1.28608810901641846 255 0 246 61 195
6.40632295608520508 6.93001842498779297 1.32727742195129395 255 0 246 61 195
6.46364068984985352 6.94997024536132812 1.30551409721374512 255 0 246 61 195
6.39391088485717773 7.19426441192626953 1.2566148042678833 255 0 246 61 195
6.28379392623901367 7.17599916458129883 1.35076808929443359 255 0 246 61 195
6.27496337890625 7.12423610687255859 1.3622591495513916 255 0 246 61 195
6.25814676284790039 7.04622459411621094 1.40686595439910889 255 0 246 61 195
6.27199840545654297 7.04569339752197266 1.44085109233856201 255 0 246 61 195
6.25972080230712891 7.03296709060668945 1.37343072891235352 255 0 246 61 195
6.26145792007446289 7.0579380989074707 1.38060355186462402 255 0 246 61 195
6.27788066864013672 7.07173633575439453 1.36762690544128418 255 0 246 61 195
6.25166893005371094 7.09966421127319336 1.38424801826477051 255 0 246 61 195
6.53005456924438477 7.07286262512207031 1.27680885791778564 255 0 246 61 195
6.49559831619262695 7.08872652053833008 1.28481376171112061 255 0 246 61 195
6.55439472198486328 7.04977989196777344 1.28602862358093262 255 0 246 61 195
6.53067398071289062 7.04967498779296875 1.29041731357574463 255 0 246 61 195
6.23042583465576172 6.93522930145263672 1.45530188083648682 255 0 246 61 195
6.23132848739624023 6.91177749633789062 1.476043701171875 255 0 246 61 195
6.40550422668457031 7.13959455490112305 1.26905167102813721 255 0 246 61 195
6.33129978179931641 7.14340591430664062 1.32731568813323975 255 0 246 61 195
6.36623668670654297 7.16061973571777344 1.30271518230438232 255 0 246 61 195
6.35003423690795898 7.16407680511474609 1.31600558757781982 255 0 246 61 195
6.31863117218017578 7.17596149444580078 1.32754838466644287 255 0 246 61 195
6.38307714462280273 7.15717267990112305 1.28148484230041504 255 0 246 61 195
6.3588252067565918 7.16930675506591797 1.27432191371917725 255 0 246 61 195
6.35145950317382812 7.18741178512573242 1.28064548969268799 255 0 246 61 195
6.35645294189453125 7.32527017593383789 1.27146065235137939 255 0 246 61 195
6.38696813583374023 7.32400703430175781 1.28713858127593994 255 0 246 61 195
6.34340572357177734 7.30619192123413086 1.2732006311416626 255 0 246 61 195
6.34305572509765625 7.04875612258911133 1.32620036602020264 255 0 246 61 195
6.35174322128295898 6.97270679473876953 1.33574104309082031 255 0 246 61 195
6.38277482986450195 7.00449419021606445 1.31779849529266357 255 0 246 61 195
6.39460611343383789 6.96333694458007812 1.32163512706756592 255 0 246 61 195
6.34556198120117188 6.99467802047729492 1.329764723777771 255 0 246 61 195
6.45922660827636719 7.06851530075073242 1.30236923694610596 255 0 246 61 195
6.44632768630981445 7.09845542907714844 1.30039262771606445 255 0 246 61 195
6.40845394134521484 7.10863351821899414 1.30245959758758545 255 0 246 61 195
6.41046237945556641 7.08265876770019531 1.30817878246307373 255 0 246 61 195
6.29002094268798828 6.89723825454711914 1.42067170143127441 255 0 246 61 195
6.24741935729980469 6.91764163970947266 1.41709363460540771 255 0 246 61 195
6.23016214370727539 6.94206857681274414 1.41917884349822998 255 0 246 61 195
6.26721811294555664 6.9619908332824707 1.37775087356567383 255 0 246 61 195
6.26051473617553711 6.91023683547973633 1.41233813762664795 255 0 246 61 195
6.32389593124389648 6.93770074844360352 1.36775112152099609 255 0 246 61 195
6.27878856658935547 7.2011256217956543 1.3812025785446167 255 0 246 61 195
6.27928018569946289 7.20178937911987305 1.36005496978759766 255 0 246 61 195
6.30671930313110352 7.22937917709350586 1.36350047588348389 255 0 246 61 195
6.23692464828491211 7.05121088027954102 1.48580610752105713 255 0 246 61 195
6.23230791091918945 7.0174403190612793 1.41773700714111328 255 0 246 61 195
6.23625040054321289 7.03423261642456055 1.42299330234527588 255 0 246 61 195
6.38072633743286133 7.23875188827514648 1.25098872184753418 255 0 246 61 195
6.33236789703369141 7.24219083786010742 1.26569604873657227 255 0 246 61 195
6.34778451919555664 7.20794486999511719 1.26438748836517334 255 0 246 61 195
6.28974103927612305 6.8877716064453125 1.45975041389465332 255 0 246 61 195
6.23836851119995117 6.90093088150024414 1.4807591438293457 255 0 246 61 195
6.23511314392089844 6.9096989631652832 1.50470471382141113 255 0 246 61 195
6.3635706901550293 6.91493940353393555 1.36079394817352295 255 0 246 61 195
6.41332769393920898 7.28397607803344727 1.28597700595855713 255 0 246 61 195
6.2385401725769043 7.01615715026855469 1.50764644145965576 255 0 246 61 195
6.20861101150512695 6.96350431442260742 1.48372757434844971 255 0 246 61 195
6.21888589859008789 6.99807882308959961 1.47071754932403564 255 0 246 61 195
6.2143101692199707 6.98192501068115234 1.44748258590698242 255 0 246 61 195
6.55744791030883789 6.99725627899169922 1.28247785568237305 255 0 246 61 195
6.51755809783935547 6.97290611267089844 1.29091334342956543 255 0 246 61 195
6.47355794906616211 7.12648868560791016 1.28583085536956787 255 0 246 61 195
6.41956090927124023 7.12011003494262695 1.28462553024291992 255 0 246 61 195
6.44120168685913086 7.12833166122436523 1.29045236110687256 255 0 246 61 195
6.41081762313842773 7.16402530670166016 1.2870333194732666 255 0 246 61 195
6.47649383544921875 7.1874699592590332 1.27943253517150879 255 0 246 61 195
6.40420389175415039 7.18026256561279297 1.28220224380493164 255 0 246 61 195
6.45566225051879883 7.32189846038818359 1.27354276180267334 255 0 246 61 195
6.40215969085693359 7.2036433219909668 1.27563154697418213 255 0 246 61 195
6.29394769668579102 6.87731170654296875 1.49691808223724365 255 0 246 61 195
6.28604459762573242 6.87683725357055664 1.48176813125610352 255 0 246 61 195
6.53989982604980469 6.95332431793212891 1.27498650550842285 255 0 246 61 195
6.306549072265625 7.20696067810058594 1.33420419692993164 255 0 246 61 195
6.21902084350585938 6.99594402313232422 1.50705182552337646 255 0 246 61 195
6.22834968566894531 6.94659709930419922 1.51628470420837402 255 0 246 61 195
6.24798679351806641 6.8974456787109375 1.53049731254577637 255 0 246 61 195
6.27039384841918945 6.87518978118896484 1.51883053779602051 255 0 246 61 195
6.27180051803588867 6.89429044723510742 1.5026782751083374 255 0 246 61 195
6.55518674850463867 7.32166099548339844 1.23385703563690186 255 0 246 61 195
6.58245372772216797 7.10707759857177734 1.24284243583679199 255 0 246 61 195
6.5932927131652832 7.04169893264770508 1.27333760261535645 255 0 246 61 195
6.56479597091674805 7.11845111846923828 1.25583446025848389 255 0 246 61 195
6.60048246383666992 7.05837011337280273 1.2436225414276123 255 0 246 61 195
6.57909774780273438 7.06270170211791992 1.25785708427429199 255 0 246 61 195
6.55221462249755859 7.35513019561767578 1.27138149738311768 255 0 246 61 195
6.65924453735351562 7.02088308334350586 1.24064910411834717 255 0 246 61 195
6.6228337287902832 7.03154945373535156 1.26565384864807129 255 0 246 61 195
6.58394956588745117 6.9828028678894043 1.26909971237182617 255 0 246 61 195
6.61704587936401367 7.00095987319946289 1.26529192924499512 255 0 246 61 195
6.46713113784790039 7.15070056915283203 1.36373519897460938 255 0 246 61 195
6.42531967163085938 7.12695741653442383 1.38193559646606445 255 0 246 61 195
6.42765951156616211 7.17485284805297852 1.36075723171234131 255 0 246 61 195
6.44592905044555664 7.13684511184692383 1.37517774105072021 255 0 246 61 195
6.28192806243896484 7.14420175552368164 1.41626346111297607 255 0 246 61 195
6.30096149444580078 7.16928768157958984 1.4084697961807251 255 0 246 61 195
6.2860565185546875 7.18384504318237305 1.40133237838745117 255 0 246 61 195
6.3321232795715332 7.18681144714355469 1.39604091644287109 255 0 246 61 195
6.24216842651367188 7.14850044250488281 1.39516651630401611 255 0 246 61 195
6.46221828460693359 7.24655914306640625 1.32279276847839355 255 0 246 61 195
6.4579777717590332 7.27826833724975586 1.32183432579040527 255 0 246 61 195
6.40121316909790039 7.23372411727905273 1.34488677978515625 255 0 246 61 195
6.44977140426635742 7.22889900207519531 1.33222782611846924 255 0 246 61 195
6.38151979446411133 7.26740455627441406 1.32857286930084229 255 0 246 61 195
6.44019556045532227 7.19536066055297852 1.33861398696899414 255 0 246 61 195
6.49260854721069336 7.16083431243896484 1.3595280647277832 255 0 246 61 195
6.36412572860717773 7.27180385589599609 1.3175886869430542 255 0 246 61 195
6.41375064849853516 7.19920969009399414 1.34651064872741699 255 0 246 61 195
6.33191061019897461 7.23978948593139648 1.29841804504394531 255 0 246 61 195
6.38410472869873047 7.21196413040161133 1.35568404197692871 255 0 246 61 195
6.36998462677001953 7.26501655578613281 1.34534835815429688 255 0 246 61 195
6.3491826057434082 7.24205875396728516 1.35673534870147705 255 0 246 61 195
6.34426641464233398 7.26610422134399414 1.306876540184021 255 0 246 61 195
6.51254034042358398 7.34368276596069336 1.28476929664611816 255 0 246 61 195
6.5017695426940918 7.29723358154296875 1.31078982353210449 255 0 246 61 195
6.27485847473144531 7.09741592407226562 1.41422629356384277 255 0 246 61 195
6.25714492797851562 7.09846639633178711 1.39741408824920654 255 0 246 61 195
6.51866245269775391 7.17441177368164062 1.34554827213287354 255 0 246 61 195
6.47266292572021484 7.19023656845092773 1.32417380809783936 255 0 246 61 195
6.49860525131225586 7.17285680770874023 1.32489585876464844 255 0 246 61 195
6.53730583190917969 7.19170665740966797 1.32245087623596191 255 0 246 61 195
6.30964946746826172 7.28604745864868164 1.29579925537109375 255 0 246 61 195
6.36623191833496094 7.31277656555175781 1.30363261699676514 255 0 246 61 195
6.33900260925292969 7.32498455047607422 1.28365206718444824 255 0 246 61 195
6.31990957260131836 7.21418476104736328 1.38967430591583252 255 0 246 61 195
6.3451542854309082 7.21635866165161133 1.37162613868713379 255 0 246 61 195
6.38098287582397461 7.12068986892700195 1.39550125598907471 255 0 246 61 195
6.28193902969360352 7.07610702514648438 1.42318880558013916 255 0 246 61 195
6.44562101364135742 7.31434917449951172 1.30539178848266602 255 0 246 61 195
6.38609075546264648 7.32670164108276367 1.29662799835205078 255 0 246 61 195
6.41037893295288086 7.32980680465698242 1.29914712905883789 255 0 246 61 195
6.43881893157958984 7.3334355354309082 1.28718233108520508 255 0 246 61 195
6.41290473937988281 7.27496004104614258 1.32743692398071289 255 0 246 61 195
6.37037086486816406 7.18489933013916016 1.3721158504486084 255 0 246 61 195
6.36155223846435547 7.10601997375488281 1.42466318607330322 255 0 246 61 195
6.34637451171875 7.14143037796020508 1.41251647472381592 255 0 246 61 195
6.38338375091552734 7.16060543060302734 1.38694465160369873 255 0 246 61 195
6.28469753265380859 7.12589216232299805 1.43480920791625977 255 0 246 61 195
6.462432861328125 7.16918706893920898 1.34878063201904297 255 0 246 61 195
6.44067001342773438 7.17305231094360352 1.3384932279586792 255 0 246 61 195
6.52937173843383789 7.26016044616699219 1.31356453895568848 255 0 246 61 195
6.49801540374755859 7.21157979965209961 1.31926524639129639 255 0 246 61 195
6.56251192092895508 7.2003936767578125 1.34147322177886963 255 0 246 61 195
6.54518461227416992 7.21459341049194336 1.30823671817779541 255 0 246 61 195
6.59212970733642578 7.22420310974121094 1.32007896900177002 255 0 246 61 195
6.51412010192871094 7.33624505996704102 1.29730653762817383 255 0 246 61 195
6.5545811653137207 7.35032463073730469 1.29238688945770264 255 0 246 61 195
