ply
format ascii 1.0
element vertex 295
property float x
property float y
property float z
property uchar red
property uchar green
property uchar blue
property uchar alpha
property uint label
end_header
5.60544586181640625 2.32447433471679688 0.301801085472106934 255 0 246 150 106
5.60953712463378906 2.32106399536132812 0.344614028930664062 255 0 246 150 106
5.69789743423461914 2.32066869735717773 0.344997167587280273 255 0 246 150 106
5.67188644409179688 2.32944655418395996 0.287842661142349243 255 0 246 150 106
5.66435575485229492 2.33337163925170898 0.343000084161758423 255 0 246 150 106
5.71444368362426758 2.31618499755859375 0.322241634130477905 255 0 246 150 106
5.70217037200927734 2.32217502593994141 0.375218868255615234 255 0 246 150 106
5.86855888366699219 2.35821390151977539 0.0534858629107475281 255 0 246 150 106
5.83812904357910156 2.36901545524597168 0.0779201984405517578 255 0 246 150 106
5.80502033233642578 2.35728025436401367 0.148869425058364868 255 0 246 150 106
5.83982086181640625 2.34052753448486328 0.216362431645393372 255 0 246 150 106
5.80127716064453125 2.33531379699707031 0.189655572175979614 255 0 246 150 106
5.61934041976928711 2.3305966854095459 0.13671131432056427 255 0 246 150 106
5.64104652404785156 2.32482457160949707 0.16942007839679718 255 0 246 150 106
5.61317253112792969 2.34391570091247559 0.110405430197715759 255 0 246 150 106
5.67011260986328125 2.34429001808166504 0.106585107743740082 255 0 246 150 106
5.82178354263305664 2.32555103302001953 0.237820684909820557 255 0 246 150 106
5.58189868927001953 2.31485748291015625 0.186072051525115967 255 0 246 150 106
5.59274482727050781 2.32648062705993652 0.246669396758079529 255 0 246 150 106
5.58838748931884766 2.33655214309692383 0.0966704860329627991 255 0 246 150 106
5.58565282821655273 2.32760024070739746 0.125504180788993835 255 0 246 150 106
5.56916618347167969 2.2818763256072998 0.194842934608459473 255 0 246 150 106
5.57494354248046875 2.28080177307128906 0.242329537868499756 255 0 246 150 106
5.55515813827514648 2.27749180793762207 0.198659151792526245 255 0 246 150 106
5.58037185668945312 2.31942653656005859 0.224333837628364563 255 0 246 150 106
5.59964752197265625 2.31896233558654785 0.18796674907207489 255 0 246 150 106
5.66677474975585938 2.32176113128662109 0.227034643292427063 255 0 246 150 106
5.68758773803710938 2.30567383766174316 0.189204663038253784 255 0 246 150 106
5.54044771194458008 2.26944804191589355 0.0527733676135540009 255 0 246 150 106
5.83760261535644531 2.34462642669677734 0.181223809719085693 255 0 246 150 106
5.85883188247680664 2.36024928092956543 0.18026384711265564 255 0 246 150 106
5.86657905578613281 2.38349103927612305 0.153342053294181824 255 0 246 150 106
5.68845558166503906 2.32884550094604492 0.144968315958976746 255 0 246 150 106
5.68958520889282227 2.31237220764160156 0.173036843538284302 255 0 246 150 106
5.88669633865356445 2.34665298461914062 0.0732888877391815186 255 0 246 150 106
5.66953372955322266 2.33480668067932129 0.40145576000213623 255 0 246 150 106
5.67551898956298828 2.32510280609130859 0.451267421245574951 255 0 246 150 106
5.62937831878662109 2.32495379447937012 0.415686041116714478 255 0 246 150 106
5.72969245910644531 2.36170339584350586 0.117375709116458893 255 0 246 150 106
5.69986629486083984 2.3448488712310791 0.114182032644748688 255 0 246 150 106
5.72561836242675781 2.35565447807312012 0.14372764527797699 255 0 246 150 106
5.75179767608642578 2.34868836402893066 0.159163087606430054 255 0 246 150 106
5.75500869750976562 2.30814552307128906 0.243807658553123474 255 0 246 150 106
5.79285907745361328 2.30407404899597168 0.26282915472984314 255 0 246 150 106
5.64717864990234375 2.32509684562683105 0.230271100997924805 255 0 246 150 106
5.62175464630126953 2.32098603248596191 0.229373946785926819 255 0 246 150 106
5.64948415756225586 2.33457136154174805 0.28236272931098938 255 0 246 150 106
5.61507368087768555 2.32538843154907227 0.262422263622283936 255 0 246 150 106
5.69256114959716797 2.32127761840820312 0.528637826442718506 255 0 246 150 106
5.69080352783203125 2.31992554664611816 0.485980689525604248 255 0 246 150 106
5.73356199264526367 2.32256889343261719 0.497323036193847656 255 0 246 150 106
5.73011064529418945 2.32289862632751465 0.54968714714050293 255 0 246 150 106
5.63970279693603516 2.30455780029296875 0.478912621736526489 255 0 246 150 106
5.62862157821655273 2.30254316329956055 0.498959392309188843 255 0 246 150 106
5.653900146484375 2.30620622634887695 0.50968778133392334 255 0 246 150 106
5.64026403427124023 2.29325222969055176 0.521492600440979004 255 0 246 150 106
5.58562755584716797 2.31606364250183105 0.263104647397994995 255 0 246 150 106
5.72470617294311523 2.30013394355773926 0.213850796222686768 255 0 246 150 106
5.72768259048461914 2.31965255737304688 0.182242155075073242 255 0 246 150 106
5.6870265007019043 2.30305910110473633 0.203940972685813904 255 0 246 150 106
5.68982553482055664 2.30818629264831543 0.240267127752304077 255 0 246 150 106
5.75943565368652344 2.31828093528747559 0.208701431751251221 255 0 246 150 106
5.71659183502197266 2.29300904273986816 0.262752890586853027 255 0 246 150 106
5.74722051620483398 2.29131507873535156 0.28570634126663208 255 0 246 150 106
5.70384359359741211 2.31252908706665039 0.306449443101882935 255 0 246 150 106
5.70644903182983398 2.32519078254699707 0.415505111217498779 255 0 246 150 106
5.81608724594116211 2.37028145790100098 0.0889351814985275269 255 0 246 150 106
5.77726268768310547 2.36303567886352539 0.115248158574104309 255 0 246 150 106
5.76857328414916992 2.35243010520935059 0.162160277366638184 255 0 246 150 106
5.81709718704223633 2.36984539031982422 0.130661308765411377 255 0 246 150 106
5.57424402236938477 2.31282734870910645 0.138838797807693481 255 0 246 150 106
5.57632684707641602 2.30426955223083496 0.0903646945953369141 255 0 246 150 106
5.56395578384399414 2.27423262596130371 0.131243705749511719 255 0 246 150 106
5.56988286972045898 2.26379728317260742 0.0773155689239501953 255 0 246 150 106
5.65987396240234375 2.2912747859954834 0.56178581714630127 255 0 246 150 106
5.70951747894287109 2.31392049789428711 0.56577610969543457 255 0 246 150 106
5.75085592269897461 2.33518147468566895 0.380450397729873657 255 0 246 150 106
5.90801906585693359 2.34288382530212402 0.0596559084951877594 255 0 246 150 106
5.78972148895263672 2.34771132469177246 0.440933853387832642 255 0 246 150 106
5.84329652786254883 2.34969663619995117 0.454291492700576782 255 0 246 150 106
5.78502082824707031 2.33932256698608398 0.516299545764923096 255 0 246 150 106
5.81488561630249023 2.34744000434875488 0.502421975135803223 255 0 246 150 106
5.75537395477294922 2.33338046073913574 0.474035263061523438 255 0 246 150 106
5.77216529846191406 2.33440351486206055 0.553572595119476318 255 0 246 150 106
5.76946496963500977 2.33810615539550781 0.351968139410018921 255 0 246 150 106
5.8106989860534668 2.34690713882446289 0.346237748861312866 255 0 246 150 106
5.80190944671630859 2.34866476058959961 0.396980166435241699 255 0 246 150 106
5.768096923828125 2.33100676536560059 0.334853410720825195 255 0 246 150 106
5.93788671493530273 2.3934934139251709 0.463754981756210327 255 0 246 150 106
5.91581249237060547 2.37000799179077148 0.508482217788696289 255 0 246 150 106
5.95064020156860352 2.37729430198669434 0.5068855881690979 255 0 246 150 106
5.92645454406738281 2.39330577850341797 0.263212829828262329 255 0 246 150 106
5.91631364822387695 2.3912043571472168 0.235146582126617432 255 0 246 150 106
5.8717961311340332 2.3440711498260498 0.476743131875991821 255 0 246 150 106
5.88910198211669922 2.34162783622741699 0.502436339855194092 255 0 246 150 106
5.90246105194091797 2.35458636283874512 0.532730758190155029 255 0 246 150 106
5.85896110534667969 2.34311604499816895 0.244853034615516663 255 0 246 150 106
5.87957000732421875 2.38653135299682617 0.182383120059967041 255 0 246 150 106
5.89562511444091797 2.39036440849304199 0.21220889687538147 255 0 246 150 106
5.89629793167114258 2.38111686706542969 0.157243728637695312 255 0 246 150 106
5.92387294769287109 2.39854550361633301 0.345972031354904175 255 0 246 150 106
5.93201828002929688 2.40473341941833496 0.398130625486373901 255 0 246 150 106
5.90726470947265625 2.38039541244506836 0.143777862191200256 255 0 246 150 106
5.889892578125 2.36248064041137695 0.11683008074760437 255 0 246 150 106
5.80898189544677734 2.30000472068786621 0.283350944519042969 255 0 246 150 106
5.94090414047241211 2.40088152885437012 0.434411793947219849 255 0 246 150 106
5.82130527496337891 2.35504364967346191 0.368252158164978027 255 0 246 150 106
5.87009811401367188 2.35395336151123047 0.384070545434951782 255 0 246 150 106
5.84488534927368164 2.35531139373779297 0.349315822124481201 255 0 246 150 106
5.86316967010498047 2.35935306549072266 0.34919285774230957 255 0 246 150 106
5.90015077590942383 2.38050317764282227 0.366613566875457764 255 0 246 150 106
5.88362503051757812 2.36804556846618652 0.335723638534545898 255 0 246 150 106
5.93233394622802734 2.40506839752197266 0.275987774133682251 255 0 246 150 106
5.8805699348449707 2.36867904663085938 0.271868228912353516 255 0 246 150 106
5.9004826545715332 2.38735723495483398 0.305146217346191406 255 0 246 150 106
5.83595514297485352 2.34577083587646484 0.314285933971405029 255 0 246 150 106
5.87047624588012695 2.34905266761779785 0.292453467845916748 255 0 246 150 106
5.83515739440917969 2.33093905448913574 0.267654120922088623 255 0 246 150 106
5.89372062683105469 2.38792800903320312 0.251882344484329224 255 0 246 150 106
5.75909614562988281 2.33365249633789062 0.425053268671035767 255 0 246 150 106
5.8734898567199707 2.35455870628356934 0.42045930027961731 255 0 246 150 106
5.90072536468505859 2.35207819938659668 0.47696802020072937 255 0 246 150 106
5.90547418594360352 2.37303495407104492 0.421491086483001709 255 0 246 150 106
5.83537530899047852 2.3468165397644043 0.548855245113372803 255 0 246 150 106
5.88338232040405273 2.34292483329772949 0.534405291080474854 255 0 246 150 106
5.80954217910766602 2.33628153800964355 0.566807806491851807 255 0 246 150 106
5.59088039398193359 2.23010921478271484 0.202848836779594421 255 0 246 150 106
5.65596389770507812 2.03495979309082031 0.162499994039535522 255 0 246 150 106
5.64486837387084961 2.04499983787536621 0.0799999982118606567 255 0 246 150 106
5.55383968353271484 2.22961282730102539 0.147714242339134216 255 0 246 150 106
5.57979249954223633 2.23543620109558105 0.132997691631317139 255 0 246 150 106
5.59215307235717773 2.2205965518951416 0.0958390608429908752 255 0 246 150 106
5.69974136352539062 2.113677978515625 0.492389947175979614 255 0 246 150 106
5.69864416122436523 2.14627718925476074 0.534158766269683838 255 0 246 150 106
5.72066068649291992 2.08287549018859863 0.52349168062210083 255 0 246 150 106
5.62551259994506836 2.23811554908752441 0.410424679517745972 255 0 246 150 106
5.61289691925048828 2.25553607940673828 0.440206348896026611 255 0 246 150 106
5.62298870086669922 2.24123764038085938 0.468079239130020142 255 0 246 150 106
5.6111292839050293 2.27750205993652344 0.48687976598739624 255 0 246 150 106
5.61478614807128906 2.31299209594726562 0.40942344069480896 255 0 246 150 106
5.75806236267089844 2.02060103416442871 0.519164621829986572 255 0 246 150 106
5.69714736938476562 1.88207876682281494 0.0371175967156887054 255 0 246 150 106
5.68697547912597656 1.90376770496368408 0.0423219949007034302 255 0 246 150 106
5.64868974685668945 1.98497116565704346 0.0347528345882892609 255 0 246 150 106
5.66112613677978516 1.9754258394241333 0.0557707101106643677 255 0 246 150 106
5.66018819808959961 2.00499987602233887 0.118749991059303284 255 0 246 150 106
5.65182113647460938 2.03302931785583496 0.11343749612569809 255 0 246 150 106
5.66645288467407227 2.00419950485229492 0.195691496133804321 255 0 246 150 106
5.55258846282958984 2.26568293571472168 0.200012892484664917 255 0 246 150 106
5.59076690673828125 2.23029375076293945 0.151271253824234009 255 0 246 150 106
5.57506179809570312 2.24445104598999023 0.167707771062850952 255 0 246 150 106
5.57365560531616211 2.25922060012817383 0.226029440760612488 255 0 246 150 106
5.5850214958190918 2.24782872200012207 0.191265985369682312 255 0 246 150 106
5.57020711898803711 2.26722168922424316 0.198514610528945923 255 0 246 150 106
5.59202861785888672 2.24255728721618652 0.230658560991287231 255 0 246 150 106
5.7681584358215332 1.99801015853881836 0.490712225437164307 255 0 246 150 106
5.64299392700195312 2.18931102752685547 0.484640806913375854 255 0 246 150 106
5.63812446594238281 2.20221209526062012 0.451631247997283936 255 0 246 150 106
5.65747594833374023 2.18485164642333984 0.417178034782409668 255 0 246 150 106
5.62691211700439453 2.21453738212585449 0.387869477272033691 255 0 246 150 106
5.63135576248168945 2.21569013595581055 0.443715363740921021 255 0 246 150 106
5.62084722518920898 2.22254109382629395 0.482779026031494141 255 0 246 150 106
5.59945440292358398 2.1934516429901123 0.0501264967024326324 255 0 246 150 106
5.78481578826904297 1.98018062114715576 0.473848253488540649 255 0 246 150 106
5.58437299728393555 2.27169513702392578 0.033929675817489624 255 0 246 150 106
5.57662391662597656 2.24169230461120605 0.0590785965323448181 255 0 246 150 106
5.69294500350952148 1.99549329280853271 0.268356502056121826 255 0 246 150 106
5.61578989028930664 2.17125797271728516 0.10489162802696228 255 0 246 150 106
5.60786008834838867 2.191619873046875 0.13263528048992157 255 0 246 150 106
5.60891914367675781 2.18695616722106934 0.089427649974822998 255 0 246 150 106
5.67533969879150391 2.09144687652587891 0.347018718719482422 255 0 246 150 106
5.68509721755981445 2.11547350883483887 0.448626965284347534 255 0 246 150 106
5.59588432312011719 2.25858640670776367 0.304830372333526611 255 0 246 150 106
5.6088714599609375 2.22378039360046387 0.25171959400177002 255 0 246 150 106
5.6637568473815918 2.18973946571350098 0.520247876644134521 255 0 246 150 106
5.63689613342285156 2.19881153106689453 0.523042917251586914 255 0 246 150 106
5.6371312141418457 2.23462939262390137 0.519656121730804443 255 0 246 150 106
5.62428808212280273 2.20217609405517578 0.499620944261550903 255 0 246 150 106
5.65471076965332031 2.17666983604431152 0.542753398418426514 255 0 246 150 106
5.66737604141235352 2.16704797744750977 0.473050147294998169 255 0 246 150 106
5.68018388748168945 2.16485786437988281 0.494376718997955322 255 0 246 150 106
5.62817287445068359 2.05115199089050293 0.0326837413012981415 255 0 246 150 106
5.65646791458129883 1.99827110767364502 0.0705036520957946777 255 0 246 150 106
5.63854122161865234 2.04053044319152832 0.0477325282990932465 255 0 246 150 106
5.57900333404541016 2.21378159523010254 0.0305158663541078568 255 0 246 150 106
5.62598323822021484 2.29888916015625 0.467493206262588501 255 0 246 150 106
5.61905860900878906 2.26151585578918457 0.51006704568862915 255 0 246 150 106
5.68972682952880859 2.02233433723449707 0.307464182376861572 255 0 246 150 106
5.69607019424438477 2.00498771667480469 0.325111806392669678 255 0 246 150 106
5.69406366348266602 2.0369868278503418 0.363283455371856689 255 0 246 150 106
5.68919897079467773 2.02963995933532715 0.338589221239089966 255 0 246 150 106
5.70809364318847656 2.00717306137084961 0.390716046094894409 255 0 246 150 106
5.70004367828369141 1.99149847030639648 0.300603896379470825 255 0 246 150 106
5.58504438400268555 2.26323938369750977 0.270309776067733765 255 0 246 150 106
5.64752578735351562 2.18035244941711426 0.322933495044708252 255 0 246 150 106
5.63737630844116211 2.16877031326293945 0.250883281230926514 255 0 246 150 106
5.61788749694824219 2.21795177459716797 0.295793682336807251 255 0 246 150 106
5.59829902648925781 2.30224728584289551 0.324283957481384277 255 0 246 150 106
5.61545944213867188 2.24640345573425293 0.337537705898284912 255 0 246 150 106
5.60082721710205078 2.2726747989654541 0.344664663076400757 255 0 246 150 106
5.6055598258972168 2.31267786026000977 0.371542543172836304 255 0 246 150 106
5.6064753532409668 2.26359868049621582 0.392055362462997437 255 0 246 150 106
5.67613697052001953 2.06492853164672852 0.292859345674514771 255 0 246 150 106
5.65205192565917969 2.09749984741210938 0.219999998807907104 255 0 246 150 106
5.65675687789916992 2.13624358177185059 0.294999986886978149 255 0 246 150 106
5.62645053863525391 2.21438765525817871 0.335077792406082153 255 0 246 150 106
5.64835691452026367 2.1845405101776123 0.351030856370925903 255 0 246 150 106
5.61648893356323242 2.24369096755981445 0.363866180181503296 255 0 246 150 106
5.66528511047363281 2.16798520088195801 0.413031190633773804 255 0 246 150 106
5.62316036224365234 2.13413906097412109 0.0754891857504844666 255 0 246 150 106
5.63835763931274414 2.12875008583068848 0.179374992847442627 255 0 246 150 106
5.67139530181884766 2.09264707565307617 0.311250001192092896 255 0 246 150 106
5.62478542327880859 2.16924786567687988 0.169701829552650452 255 0 246 150 106
5.61975622177124023 2.19594144821166992 0.201781392097473145 255 0 246 150 106
5.70288944244384766 2.07300376892089844 0.450761228799819946 255 0 246 150 106
5.71890068054199219 2.03159761428833008 0.46057051420211792 255 0 246 150 106
5.72596549987792969 2.01105165481567383 0.446914255619049072 255 0 246 150 106
5.67982387542724609 1.92473495006561279 0.049430016428232193 255 0 246 150 106
5.73848772048950195 2.02423882484436035 0.482439130544662476 255 0 246 150 106
5.72494220733642578 2.04959559440612793 0.491993814706802368 255 0 246 150 106
5.6016392707824707 2.15239524841308594 0.0324226170778274536 255 0 246 150 106
5.62476968765258789 2.09369301795959473 0.0415816381573677063 255 0 246 150 106
5.6151580810546875 2.14185786247253418 0.0525703839957714081 255 0 246 150 106
5.57699251174926758 2.25031113624572754 0.0811324268579483032 255 0 246 150 106
5.54450368881225586 2.24825501441955566 0.144243836402893066 255 0 246 150 106
5.55317783355712891 2.24991893768310547 0.116758093237876892 255 0 246 150 106
5.64927244186401367 2.1736447811126709 0.553088843822479248 255 0 246 150 106
5.64690160751342773 2.23788237571716309 0.556754410266876221 255 0 246 150 106
5.73297786712646484 2.05176329612731934 0.523123621940612793 255 0 246 150 106
5.77091264724731445 2.18561625480651855 0.51100611686706543 255 0 246 150 106
5.77846145629882812 2.18742275238037109 0.535482347011566162 255 0 246 150 106
6.00828647613525391 2.13751554489135742 0.520805418491363525 255 0 246 150 106
6.03940057754516602 2.10631155967712402 0.534253239631652832 255 0 246 150 106
6.00277042388916016 2.07670378684997559 0.518877744674682617 255 0 246 150 106
5.97306346893310547 1.98910737037658691 0.533954620361328125 255 0 246 150 106
5.96679353713989258 1.97447597980499268 0.489198595285415649 255 0 246 150 106
5.78430604934692383 2.0392911434173584 0.55145341157913208 255 0 246 150 106
5.8065638542175293 2.02380990982055664 0.541648328304290771 255 0 246 150 106
5.83134889602661133 2.02289223670959473 0.530276060104370117 255 0 246 150 106
5.87694883346557617 2.00232076644897461 0.524144351482391357 255 0 246 150 106
5.84978246688842773 2.03411293029785156 0.548513650894165039 255 0 246 150 106
5.79360675811767578 1.98408341407775879 0.497349292039871216 255 0 246 150 106
5.82282543182373047 1.97751355171203613 0.492019176483154297 255 0 246 150 106
6.07781791687011719 1.9605860710144043 0.502907276153564453 255 0 246 150 106
6.02046632766723633 1.97984874248504639 0.518454849720001221 255 0 246 150 106
6.0590825080871582 1.98434317111968994 0.509861171245574951 255 0 246 150 106
6.00860595703125 1.97757482528686523 0.48885008692741394 255 0 246 150 106
5.9442143440246582 2.05874323844909668 0.484829336404800415 255 0 246 150 106
5.92959117889404297 2.10045480728149414 0.442090272903442383 255 0 246 150 106
5.98141670227050781 2.08292984962463379 0.422018498182296753 255 0 246 150 106
5.95634746551513672 2.08886027336120605 0.434271186590194702 255 0 246 150 106
5.93404340744018555 2.0787661075592041 0.462053179740905762 255 0 246 150 106
5.82556438446044922 2.0906531810760498 0.472471833229064941 255 0 246 150 106
5.84641218185424805 2.07503557205200195 0.489988952875137329 255 0 246 150 106
5.90281867980957031 2.07679843902587891 0.503996908664703369 255 0 246 150 106
5.88455390930175781 2.08759975433349609 0.490122854709625244 255 0 246 150 106
5.84486722946166992 2.09492707252502441 0.527982354164123535 255 0 246 150 106
5.94123029708862305 2.0684049129486084 0.511440932750701904 255 0 246 150 106
5.97792577743530273 2.01475977897644043 0.540950953960418701 255 0 246 150 106
5.95677518844604492 2.0680854320526123 0.54388958215713501 255 0 246 150 106
5.85742807388305664 2.10060286521911621 0.463866651058197021 255 0 246 150 106
5.89032220840454102 2.10458707809448242 0.46695786714553833 255 0 246 150 106
6.01188278198242188 2.02779388427734375 0.526438653469085693 255 0 246 150 106
6.00856542587280273 2.00436305999755859 0.530554771423339844 255 0 246 150 106
6.03505659103393555 2.03783106803894043 0.515662848949432373 255 0 246 150 106
6.02646255493164062 2.09688138961791992 0.524518728256225586 255 0 246 150 106
6.00136184692382812 2.0522913932800293 0.457511872053146362 255 0 246 150 106
5.96076583862304688 1.93952286243438721 0.455952763557434082 255 0 246 150 106
6.0762629508972168 2.02118277549743652 0.517839729785919189 255 0 246 150 106
5.91533565521240234 1.99555504322052002 0.534214258193969727 255 0 246 150 106
5.85916662216186523 1.98235189914703369 0.511406064033508301 255 0 246 150 106
5.89346027374267578 1.98289477825164795 0.510660409927368164 255 0 246 150 106
5.8675074577331543 1.97371542453765869 0.48496517539024353 255 0 246 150 106
5.94540691375732422 1.96708858013153076 0.48328930139541626 255 0 246 150 106
5.98979425430297852 2.07778549194335938 0.437689095735549927 255 0 246 150 106
5.78185462951660156 2.14121532440185547 0.498871088027954102 255 0 246 150 106
5.82210731506347656 2.08311295509338379 0.519140064716339111 255 0 246 150 106
5.80034971237182617 2.08829736709594727 0.480723977088928223 255 0 246 150 106
5.79133081436157227 2.13393688201904297 0.544425666332244873 255 0 246 150 106
5.82461071014404297 2.10111808776855469 0.546484529972076416 255 0 246 150 106
5.79271078109741211 2.11735630035400391 0.521731853485107422 255 0 246 150 106
5.8075718879699707 2.09948086738586426 0.529331326484680176 255 0 246 150 106
5.76336050033569336 2.16154074668884277 0.557104945182800293 255 0 246 150 106
5.83108139038085938 2.08252620697021484 0.561683595180511475 255 0 246 150 106
5.92729902267456055 2.07650184631347656 0.542682170867919922 255 0 246 150 106
5.85840606689453125 2.05770206451416016 0.558609604835510254 255 0 246 150 106
5.7487335205078125 2.08515763282775879 0.564726948738098145 255 0 246 150 106
5.7855076789855957 2.1313323974609375 0.561750173568725586 255 0 246 150 106
5.77286624908447266 2.10356736183166504 0.574970841407775879 255 0 246 150 106
5.87607860565185547 2.07597780227661133 0.552238047122955322 255 0 246 150 106
5.94395875930786133 2.01713418960571289 0.546815991401672363 255 0 246 150 106
5.91172504425048828 2.01369023323059082 0.545416295528411865 255 0 246 150 106
5.91922950744628906 2.06076312065124512 0.553966760635375977 255 0 246 150 106
5.75071096420288086 2.13159823417663574 0.562069475650787354 255 0 246 150 106
5.81343698501586914 2.05364561080932617 0.56263202428817749 255 0 246 150 106
