ply
format ascii 1.0
element vertex 245
property float x
property float y
property float z
property uchar red
property uchar green
property uchar blue
property uchar alpha
property uint label
end_header
4.06901645660400391 1.16102719306945801 0.196232378482818604 189 211 147 222 34
4.09556055068969727 1.12687456607818604 0.478016197681427002 189 211 147 222 34
4.16876888275146484 1.0494459867477417 0.329859018325805664 189 211 147 222 34
4.17580413818359375 1.0354379415512085 0.365877717733383179 189 211 147 222 34
4.0968174934387207 1.14972376823425293 0.0684060677886009216 189 211 147 222 34
4.07779264450073242 1.14942002296447754 0.154361248016357422 189 211 147 222 34
4.10484457015991211 1.12632012367248535 0.157683894038200378 189 211 147 222 34
4.07809686660766602 1.15133941173553467 0.112113036215305328 189 211 147 222 34
4.07846879959106445 1.15220761299133301 0.244780838489532471 189 211 147 222 34
4.09521341323852539 1.13678145408630371 0.225077494978904724 189 211 147 222 34
4.11262083053588867 1.1197432279586792 0.175616592168807983 189 211 147 222 34
4.10820960998535156 1.12306714057922363 0.215582698583602905 189 211 147 222 34
4.07919168472290039 1.15347087383270264 0.268243283033370972 189 211 147 222 34
4.1181330680847168 1.1165386438369751 0.235398218035697937 189 211 147 222 34
4.1067657470703125 1.13161635398864746 0.277569979429244995 189 211 147 222 34
4.08026123046875 1.13680446147918701 0.443948298692703247 189 211 147 222 34
4.17506027221679688 1.01453137397766113 0.528002142906188965 189 211 147 222 34
4.16855955123901367 0.999153673648834229 0.509311437606811523 189 211 147 222 34
4.18331336975097656 1.02516114711761475 0.505479574203491211 189 211 147 222 34
4.18459272384643555 1.02434968948364258 0.572859406471252441 189 211 147 222 34
4.16843461990356445 1.03402328491210938 0.29557490348815918 189 211 147 222 34
4.16695356369018555 1.06336987018585205 0.25468522310256958 189 211 147 222 34
4.17620515823364258 1.04656803607940674 0.265641123056411743 189 211 147 222 34
4.1687016487121582 1.05171799659729004 0.248035654425621033 189 211 147 222 34
4.15797662734985352 1.06534934043884277 0.400902539491653442 189 211 147 222 34
4.1132664680480957 1.11220216751098633 0.386562496423721313 189 211 147 222 34
4.15874099731445312 1.00869476795196533 0.19161851704120636 189 211 147 222 34
4.17533111572265625 1.0395888090133667 0.0804351493716239929 189 211 147 222 34
4.15040445327758789 1.00488626956939697 0.515918076038360596 189 211 147 222 34
4.06418752670288086 1.14725852012634277 0.321173578500747681 189 211 147 222 34
4.06110286712646484 1.1479332447052002 0.362704545259475708 189 211 147 222 34
4.08043956756591797 1.14050650596618652 0.382921129465103149 189 211 147 222 34
4.15659904479980469 1.01834774017333984 0.106693357229232788 189 211 147 222 34
4.16006040573120117 1.04779326915740967 0.126240968704223633 189 211 147 222 34
4.17733144760131836 1.0265432596206665 0.466369599103927612 189 211 147 222 34
4.16614913940429688 1.01511299610137939 0.448541581630706787 189 211 147 222 34
4.15721321105957031 1.01217305660247803 0.388863265514373779 189 211 147 222 34
4.08034181594848633 1.1456756591796875 0.324286878108978271 189 211 147 222 34
4.031097412109375 1.12744224071502686 0.283097684383392334 189 211 147 222 34
4.15372133255004883 1.00808417797088623 0.466734886169433594 189 211 147 222 34
4.13659095764160156 1.02100014686584473 0.475227206945419312 189 211 147 222 34
4.15221452713012695 1.02571403980255127 0.169787958264350891 189 211 147 222 34
4.15590429306030273 1.02924621105194092 0.25024142861366272 189 211 147 222 34
4.15332460403442383 1.04975616931915283 0.184667021036148071 189 211 147 222 34
4.15991306304931641 1.05917549133300781 0.550238966941833496 189 211 147 222 34
4.12332820892333984 1.12822508811950684 0.0629297122359275818 189 211 147 222 34
4.17424249649047852 1.06485700607299805 0.0657889768481254578 189 211 147 222 34
4.14988422393798828 1.07962214946746826 0.232842996716499329 189 211 147 222 34
4.1390833854675293 1.09920847415924072 0.262688785791397095 189 211 147 222 34
4.14098405838012695 1.08852314949035645 0.302526086568832397 189 211 147 222 34
4.15536212921142578 1.01590430736541748 0.340118974447250366 189 211 147 222 34
4.13598108291625977 1.02719640731811523 0.354819297790527344 189 211 147 222 34
4.15262365341186523 1.0125354528427124 0.280463099479675293 189 211 147 222 34
4.13694047927856445 1.02592551708221436 0.30396696925163269 189 211 147 222 34
4.06341409683227539 1.1580740213394165 0.248176023364067078 189 211 147 222 34
4.06290197372436523 1.15687859058380127 0.292203038930892944 189 211 147 222 34
4.04772615432739258 1.15199840068817139 0.286263197660446167 189 211 147 222 34
4.149505615234375 1.07495284080505371 0.493005841970443726 189 211 147 222 34
4.10784673690795898 1.11296534538269043 0.53992462158203125 189 211 147 222 34
4.15436697006225586 1.0689690113067627 0.441418915987014771 189 211 147 222 34
4.132965087890625 1.0932239294052124 0.433016806840896606 189 211 147 222 34
4.15054225921630859 1.06460809707641602 0.200727581977844238 189 211 147 222 34
4.15117168426513672 1.06881558895111084 0.126797959208488464 189 211 147 222 34
4.11499834060668945 1.11482810974121094 0.125104472041130066 189 211 147 222 34
4.14127779006958008 1.09321308135986328 0.0817515328526496887 189 211 147 222 34
4.15419721603393555 1.07077276706695557 0.101342611014842987 189 211 147 222 34
4.13447666168212891 1.09374439716339111 0.112822920083999634 189 211 147 222 34
4.17207813262939453 1.03880453109741211 0.422437727451324463 189 211 147 222 34
4.17788219451904297 1.03929293155670166 0.469664543867111206 189 211 147 222 34
4.15925264358520508 1.00011038780212402 0.233743041753768921 189 211 147 222 34
4.07227659225463867 1.13705289363861084 0.501698911190032959 189 211 147 222 34
3.90998077392578125 1.0221477746963501 0.586229801177978516 189 211 147 222 34
4.05497980117797852 1.07006752490997314 0.582007646560668945 189 211 147 222 34
4.06115341186523438 1.11201834678649902 0.585983633995056152 189 211 147 222 34
4.02255010604858398 1.0972435474395752 0.601120889186859131 189 211 147 222 34
4.0208282470703125 1.10755789279937744 0.614378631114959717 189 211 147 222 34
3.81609940528869629 1.03316724300384521 0.664094448089599609 189 211 147 222 34
3.81583738327026367 1.02572906017303467 0.602569520473480225 189 211 147 222 34
3.84261894226074219 1.0494152307510376 0.615413427352905273 189 211 147 222 34
4.00697183609008789 1.10583555698394775 0.65945965051651001 189 211 147 222 34
4.06092643737792969 1.12459063529968262 0.627409934997558594 189 211 147 222 34
3.99448323249816895 1.08680355548858643 0.704277932643890381 189 211 147 222 34
4.04383373260498047 1.07205605506896973 0.708367407321929932 189 211 147 222 34
4.16688919067382812 0.974255919456481934 0.553296983242034912 189 211 147 222 34
4.17181777954101562 1.00710511207580566 0.610252201557159424 189 211 147 222 34
4.18505620956420898 1.01514720916748047 0.612151443958282471 189 211 147 222 34
4.20080280303955078 0.991423964500427246 0.644744575023651123 189 211 147 222 34
4.19693565368652344 1.02375459671020508 0.627747595310211182 189 211 147 222 34
4.17156076431274414 1.04363346099853516 0.623756825923919678 189 211 147 222 34
4.06996536254882812 1.12208008766174316 0.659697592258453369 189 211 147 222 34
4.0153350830078125 1.11707186698913574 0.693998217582702637 189 211 147 222 34
4.04096508026123047 1.11847472190856934 0.70759505033493042 189 211 147 222 34
4.08507394790649414 1.12588047981262207 0.552670001983642578 189 211 147 222 34
4.08262109756469727 1.12674248218536377 0.606721043586730957 189 211 147 222 34
4.09000682830810547 1.12082540988922119 0.663573145866394043 189 211 147 222 34
4.13366556167602539 1.12788283824920654 0.692817747592926025 189 211 147 222 34
4.08047342300415039 1.13362967967987061 0.693855881690979004 189 211 147 222 34
4.12781047821044922 1.1013944149017334 0.662991583347320557 189 211 147 222 34
3.88252758979797363 0.882875561714172363 0.78041684627532959 189 211 147 222 34
3.85882377624511719 0.899843096733093262 0.783165156841278076 189 211 147 222 34
3.8576819896697998 0.930587232112884521 0.729368984699249268 189 211 147 222 34
3.87875127792358398 0.896449089050292969 0.746816873550415039 189 211 147 222 34
3.85143947601318359 1.01955020427703857 0.593665957450866699 189 211 147 222 34
4.03265380859375 0.938987493515014648 0.700243115425109863 189 211 147 222 34
3.90234899520874023 1.06760323047637939 0.693129181861877441 189 211 147 222 34
3.8486015796661377 1.04925763607025146 0.654066860675811768 189 211 147 222 34
3.89995241165161133 1.0622633695602417 0.665668487548828125 189 211 147 222 34
3.84772014617919922 1.05261886119842529 0.70096433162689209 189 211 147 222 34
3.91393280029296875 1.05538201332092285 0.70564645528793335 189 211 147 222 34
4.192047119140625 1.06647157669067383 0.64977872371673584 189 211 147 222 34
4.20205116271972656 1.07819581031799316 0.662605762481689453 189 211 147 222 34
4.16469955444335938 1.10345125198364258 0.676939964294433594 189 211 147 222 34
3.79719066619873047 1.03538966178894043 0.693268835544586182 189 211 147 222 34
3.76188087463378906 1.02723371982574463 0.680185019969940186 189 211 147 222 34
3.80025696754455566 1.03342175483703613 0.704461455345153809 189 211 147 222 34
3.85643124580383301 0.888581037521362305 0.795762836933135986 189 211 147 222 34
3.92857599258422852 1.07566940784454346 0.614975512027740479 189 211 147 222 34
3.93183612823486328 1.05038988590240479 0.595025897026062012 189 211 147 222 34
3.99503397941589355 1.05393636226654053 0.586795151233673096 189 211 147 222 34
3.95659732818603516 1.07967281341552734 0.605811834335327148 189 211 147 222 34
3.90648889541625977 0.991989672183990479 0.71638941764831543 189 211 147 222 34
4.17942523956298828 1.03680253028869629 0.55493009090423584 189 211 147 222 34
4.06135082244873047 1.12357234954833984 0.594352364540100098 189 211 147 222 34
3.80618762969970703 1.01581418514251709 0.711494982242584229 189 211 147 222 34
3.77959918975830078 1.00914430618286133 0.72620093822479248 189 211 147 222 34
3.80812644958496094 0.969616711139678955 0.774518609046936035 189 211 147 222 34
3.82013988494873047 0.977332532405853271 0.727627992630004883 189 211 147 222 34
3.79540228843688965 1.00029444694519043 0.726857125759124756 189 211 147 222 34
3.85058403015136719 0.920122325420379639 0.756458044052124023 189 211 147 222 34
3.81816267967224121 0.947305619716644287 0.791172385215759277 189 211 147 222 34
3.84465312957763672 0.967818677425384521 0.717912077903747559 189 211 147 222 34
3.87258744239807129 0.956545412540435791 0.720142781734466553 189 211 147 222 34
3.86411666870117188 1.03134739398956299 0.713650643825531006 189 211 147 222 34
4.06264019012451172 1.07586407661437988 0.714295923709869385 189 211 147 222 34
3.9532160758972168 1.08998191356658936 0.622686207294464111 189 211 147 222 34
3.97821164131164551 1.09283649921417236 0.667417824268341064 189 211 147 222 34
3.94585847854614258 1.01417207717895508 0.706228375434875488 189 211 147 222 34
3.92752671241760254 1.07459723949432373 0.668890893459320068 189 211 147 222 34
3.93417024612426758 1.06612288951873779 0.705738246440887451 189 211 147 222 34
3.97256684303283691 1.09337854385375977 0.694420158863067627 189 211 147 222 34
3.76510715484619141 1.02188587188720703 0.616584539413452148 189 211 147 222 34
3.79853224754333496 1.03306925296783447 0.613587379455566406 189 211 147 222 34
3.83730888366699219 0.995139658451080322 0.585407435894012451 189 211 147 222 34
4.16036510467529297 1.06983375549316406 0.648431718349456787 189 211 147 222 34
4.10027408599853516 1.11625528335571289 0.625783145427703857 189 211 147 222 34
4.13197183609008789 1.08916819095611572 0.637551486492156982 189 211 147 222 34
4.13520622253417969 1.08705651760101318 0.584548473358154297 189 211 147 222 34
3.88747048377990723 0.912161588668823242 0.724947333335876465 189 211 147 222 34
3.94573521614074707 0.922388434410095215 0.719270646572113037 189 211 147 222 34
3.94280505180358887 0.900717973709106445 0.724418759346008301 189 211 147 222 34
3.87580013275146484 1.06032311916351318 0.615304231643676758 189 211 147 222 34
3.87148737907409668 1.05144655704498291 0.605265021324157715 189 211 147 222 34
3.98661923408508301 0.906867265701293945 0.719407618045806885 189 211 147 222 34
4.05393218994140625 0.92344355583190918 0.704431354999542236 189 211 147 222 34
3.97795653343200684 0.955081462860107422 0.704881429672241211 189 211 147 222 34
4.11425209045410156 0.953920125961303711 0.703566312789916992 189 211 147 222 34
4.00649166107177734 1.05523264408111572 0.705456733703613281 189 211 147 222 34
4.09253168106079102 0.98547971248626709 0.701211869716644287 189 211 147 222 34
4.01568841934204102 0.978887438774108887 0.700381934642791748 189 211 147 222 34
3.77844977378845215 0.845019936561584473 0.68632042407989502 189 211 147 222 34
3.8588707447052002 0.823293983936309814 0.883157432079315186 189 211 147 222 34
3.7589421272277832 0.977458059787750244 0.673653602600097656 189 211 147 222 34
3.84906196594238281 0.802054286003112793 0.729928016662597656 189 211 147 222 34
3.83784961700439453 0.893494606018066406 0.797668814659118652 189 211 147 222 34
3.87328696250915527 0.707212746143341064 0.788174152374267578 189 211 147 222 34
3.87847805023193359 0.696894288063049316 0.867768943309783936 189 211 147 222 34
3.87965631484985352 0.6975594162940979 0.849195241928100586 189 211 147 222 34
3.76241421699523926 1.01259410381317139 0.716130495071411133 189 211 147 222 34
3.80345940589904785 0.954441249370574951 0.773306727409362793 189 211 147 222 34
3.79336833953857422 0.983977019786834717 0.766143977642059326 189 211 147 222 34
3.77631068229675293 0.957319498062133789 0.727749407291412354 189 211 147 222 34
3.75732588768005371 0.94451904296875 0.714222192764282227 189 211 147 222 34
3.77243542671203613 0.861684024333953857 0.699127912521362305 189 211 147 222 34
3.75014925003051758 0.930206656455993652 0.70176851749420166 189 211 147 222 34
3.83321404457092285 0.70335853099822998 0.686391770839691162 189 211 147 222 34
3.81783938407897949 0.93078005313873291 0.792534410953521729 189 211 147 222 34
3.86575889587402344 0.780114531517028809 0.750215709209442139 189 211 147 222 34
3.85838532447814941 0.774474620819091797 0.723459064960479736 189 211 147 222 34
3.85483789443969727 0.810410082340240479 0.783113360404968262 189 211 147 222 34
3.88000082969665527 0.716804206371307373 0.726211488246917725 189 211 147 222 34
3.73956084251403809 0.962862849235534668 0.686558365821838379 189 211 147 222 34
3.73315024375915527 1.00031077861785889 0.696906864643096924 189 211 147 222 34
3.73195457458496094 1.02030849456787109 0.708202481269836426 189 211 147 222 34
3.73753571510314941 0.971299171447753906 0.705969572067260742 189 211 147 222 34
3.74576330184936523 0.941497325897216797 0.683645665645599365 189 211 147 222 34
3.84759187698364258 0.839606940746307373 0.751215755939483643 189 211 147 222 34
3.77527976036071777 0.89343559741973877 0.723499536514282227 189 211 147 222 34
3.83434724807739258 0.878259718418121338 0.783490419387817383 189 211 147 222 34
3.79572796821594238 0.91753232479095459 0.737366974353790283 189 211 147 222 34
3.86755967140197754 0.742501795291900635 0.795049905776977539 189 211 147 222 34
3.8534247875213623 0.809367775917053223 0.818463027477264404 189 211 147 222 34
3.8587946891784668 0.793311893939971924 0.873929977416992188 189 211 147 222 34
3.8546597957611084 0.818367958068847656 0.847499728202819824 189 211 147 222 34
3.85324954986572266 0.857022881507873535 0.804549455642700195 189 211 147 222 34
3.81689834594726562 0.774192571640014648 0.697934150695800781 189 211 147 222 34
3.83137083053588867 0.718687951564788818 0.651713848114013672 189 211 147 222 34
3.79967164993286133 0.789269208908081055 0.682500243186950684 189 211 147 222 34
3.81661534309387207 0.758733749389648438 0.665194869041442871 189 211 147 222 34
3.81689023971557617 0.733761727809906006 0.678157031536102295 189 211 147 222 34
3.86696529388427734 0.718829751014709473 0.703020632266998291 189 211 147 222 34
3.82850050926208496 0.841900289058685303 0.732077419757843018 189 211 147 222 34
3.82023096084594727 0.88798058032989502 0.74819105863571167 189 211 147 222 34
3.79225897789001465 0.851681232452392578 0.720147311687469482 189 211 147 222 34
3.7434389591217041 1.04691481590270996 0.272058546543121338 189 211 147 222 34
3.7722928524017334 0.952599227428436279 0.180424511432647705 189 211 147 222 34
3.79319596290588379 0.909460842609405518 0.155542179942131042 189 211 147 222 34
3.79018497467041016 0.907906413078308105 0.118644028902053833 189 211 147 222 34
3.80602097511291504 0.930560111999511719 0.159391790628433228 189 211 147 222 34
3.80235409736633301 0.929327964782714844 0.105329245328903198 189 211 147 222 34
3.78435707092285156 0.902257263660430908 0.0952358618378639221 189 211 147 222 34
3.77319431304931641 0.915885686874389648 0.106823869049549103 189 211 147 222 34
3.7487494945526123 1.03200507164001465 0.303670555353164673 189 211 147 222 34
3.75419116020202637 0.973495900630950928 0.18407110869884491 189 211 147 222 34
3.72479557991027832 1.02725064754486084 0.179085493087768555 189 211 147 222 34
3.73646140098571777 1.0019981861114502 0.202815443277359009 189 211 147 222 34
3.72272086143493652 1.00679922103881836 0.0807196497917175293 189 211 147 222 34
3.72546982765197754 1.0211479663848877 0.144652023911476135 189 211 147 222 34
3.7431786060333252 0.974845528602600098 0.101613491773605347 189 211 147 222 34
3.74710202217102051 0.987052440643310547 0.150035470724105835 189 211 147 222 34
3.76675319671630859 0.954647600650787354 0.10369497537612915 189 211 147 222 34
3.72451376914978027 1.02446877956390381 0.105324670672416687 189 211 147 222 34
3.77366924285888672 0.947848796844482422 0.320059895515441895 189 211 147 222 34
3.75967955589294434 1.02086007595062256 0.46636548638343811 189 211 147 222 34
3.77084469795227051 0.981585919857025146 0.514909923076629639 189 211 147 222 34
3.7724311351776123 0.919592857360839844 0.0678408145904541016 189 211 147 222 34
3.76520204544067383 0.946146547794342041 0.0720165297389030457 189 211 147 222 34
3.78661799430847168 0.909766018390655518 0.0585620999336242676 189 211 147 222 34
3.75864934921264648 0.984696447849273682 0.232503026723861694 189 211 147 222 34
3.77214264869689941 0.955970406532287598 0.256611257791519165 189 211 147 222 34
3.76013755798339844 0.96851879358291626 0.138503909111022949 189 211 147 222 34
3.76786160469055176 0.965350151062011719 0.325130313634872437 189 211 147 222 34
3.76862955093383789 0.967790365219116211 0.367463916540145874 189 211 147 222 34
3.75225162506103516 1.01908481121063232 0.375267684459686279 189 211 147 222 34
3.7451484203338623 1.00985658168792725 0.237839534878730774 189 211 147 222 34
3.75540542602539062 1.0011448860168457 0.271177709102630615 189 211 147 222 34
3.75616598129272461 1.02098643779754639 0.428418725728988647 189 211 147 222 34
3.76242637634277344 0.999657690525054932 0.476233720779418945 189 211 147 222 34
3.7694242000579834 0.974695086479187012 0.41895526647567749 189 211 147 222 34
3.7606203556060791 0.978425145149230957 0.213790297508239746 189 211 147 222 34
3.76210403442382812 1.00512933731079102 0.668890297412872314 189 211 147 222 34
3.76375913619995117 1.00499999523162842 0.552500009536743164 189 211 147 222 34
3.7637779712677002 1.00267624855041504 0.619276821613311768 189 211 147 222 34
3.77281975746154785 0.975580036640167236 0.643343269824981689 189 211 147 222 34
3.77284336090087891 0.977280497550964355 0.565239250659942627 189 211 147 222 34
3.76331949234008789 1.01499998569488525 0.579999983310699463 189 211 147 222 34
