ply
format ascii 1.0
element vertex 617
property float x
property float y
property float z
property uchar red
property uchar green
property uchar blue
property uchar alpha
property uint label
end_header
6.23074245452880859 7.4973139762878418 1.51559233665466309 213 255 0 249 7
6.20225429534912109 7.50999975204467773 2.05249977111816406 213 255 0 249 7
6.22918415069580078 7.36943292617797852 2.39478802680969238 213 255 0 249 7
6.26979398727416992 7.46150636672973633 1.8936992883682251 213 255 0 249 7
6.22078990936279297 7.47957324981689453 1.90928637981414795 213 255 0 249 7
6.23983430862426758 7.40999984741210938 1.93499994277954102 213 255 0 249 7
6.22391128540039062 7.44999980926513672 1.93499994277954102 213 255 0 249 7
6.21552658081054688 7.52562093734741211 1.52561008930206299 213 255 0 249 7
6.23868179321289062 7.40915393829345703 2.42906808853149414 213 255 0 249 7
6.30309963226318359 7.36911106109619141 2.46782684326171875 213 255 0 249 7
6.25762653350830078 7.40682077407836914 2.4529259204864502 213 255 0 249 7
6.27352571487426758 7.43719339370727539 2.46799015998840332 213 255 0 249 7
6.29609441757202148 7.40365982055664062 2.46353387832641602 213 255 0 249 7
6.22763872146606445 7.44759750366210938 2.27648448944091797 213 255 0 249 7
6.25002479553222656 7.39835834503173828 2.24916863441467285 213 255 0 249 7
6.23019075393676758 7.44010543823242188 1.91614818572998047 213 255 0 249 7
6.22983884811401367 7.4386296272277832 1.96344435214996338 213 255 0 249 7
6.21724128723144531 7.46950101852416992 2.19093751907348633 213 255 0 249 7
6.20632648468017578 7.49499988555908203 2.15499997138977051 213 255 0 249 7
6.17840242385864258 7.51058673858642578 2.38390326499938965 213 255 0 249 7
6.25177669525146484 7.40249967575073242 2.125 213 255 0 249 7
6.22275686264038086 7.49428796768188477 1.89174783229827881 213 255 0 249 7
6.20967864990234375 7.43958950042724609 2.39383530616760254 213 255 0 249 7
6.23664569854736328 7.4375 2.20749998092651367 213 255 0 249 7
6.21624946594238281 7.46927547454833984 2.29813408851623535 213 255 0 249 7
6.24837732315063477 7.48943805694580078 1.51418280601501465 213 255 0 249 7
6.26607322692871094 7.25321006774902344 2.43247580528259277 213 255 0 249 7
6.2192072868347168 7.46378850936889648 1.98136365413665771 213 255 0 249 7
6.21962404251098633 7.46499967575073242 2.08124971389770508 213 255 0 249 7
6.23189544677734375 7.44762802124023438 2.11062479019165039 213 255 0 249 7
6.23347711563110352 7.4439697265625 2.01035523414611816 213 255 0 249 7
6.20486164093017578 7.4989471435546875 1.99468743801116943 213 255 0 249 7
6.23610734939575195 7.33841085433959961 2.40345358848571777 213 255 0 249 7
6.25300359725952148 7.2768855094909668 2.41865253448486328 213 255 0 249 7
6.23965167999267578 7.31856775283813477 2.41490435600280762 213 255 0 249 7
6.28893709182739258 7.30546092987060547 2.45551872253417969 213 255 0 249 7
6.27122688293457031 7.32801628112792969 2.44536209106445312 213 255 0 249 7
6.30573225021362305 7.34051942825317383 2.47290515899658203 213 255 0 249 7
6.24225139617919922 7.34570407867431641 2.42956376075744629 213 255 0 249 7
6.22681331634521484 7.49724769592285156 2.44298624992370605 213 255 0 249 7
6.25198173522949219 7.39999961853027344 2.06687498092651367 213 255 0 249 7
6.23882198333740234 7.43331432342529297 2.07999992370605469 213 255 0 249 7
6.24874448776245117 7.45373773574829102 2.44857287406921387 213 255 0 249 7
6.26560211181640625 7.48046541213989258 2.44838619232177734 213 255 0 249 7
6.25666189193725586 7.388946533203125 2.1868748664855957 213 255 0 249 7
6.25470829010009766 7.39167213439941406 1.9084315299987793 213 255 0 249 7
6.26120185852050781 7.40996456146240234 1.89835870265960693 213 255 0 249 7
5.93228387832641602 8.25310325622558594 1.51284110546112061 213 255 0 249 7
5.94341039657592773 8.23089599609375 1.45505416393280029 213 255 0 249 7
5.86695623397827148 8.4460601806640625 1.46529209613800049 213 255 0 249 7
5.88154935836791992 8.40236759185791016 1.50287258625030518 213 255 0 249 7
5.87833070755004883 8.40316581726074219 1.46868610382080078 213 255 0 249 7
5.91373920440673828 8.30767917633056641 1.47300314903259277 213 255 0 249 7
5.89471530914306641 8.35844898223876953 1.46926844120025635 213 255 0 249 7
5.99506092071533203 8.07734107971191406 1.45458543300628662 213 255 0 249 7
5.98089408874511719 8.10064315795898438 1.46583664417266846 213 255 0 249 7
5.9763031005859375 8.11411476135253906 1.50425910949707031 213 255 0 249 7
6.17014694213867188 7.58937549591064453 1.46528208255767822 213 255 0 249 7
6.22076511383056641 7.5290989875793457 1.45478034019470215 213 255 0 249 7
6.19645166397094727 7.5343928337097168 1.49120223522186279 213 255 0 249 7
6.18774509429931641 7.54172611236572266 1.45730185508728027 213 255 0 249 7
6.21252870559692383 7.52378082275390625 1.49054396152496338 213 255 0 249 7
5.84744644165039062 8.50488567352294922 1.46881961822509766 213 255 0 249 7
6.07398700714111328 7.83813810348510742 1.47414529323577881 213 255 0 249 7
6.08367586135864258 7.83311033248901367 1.50007152557373047 213 255 0 249 7
6.03478193283081055 7.9599919319152832 1.46512377262115479 213 255 0 249 7
6.05717945098876953 7.90019559860229492 1.51124000549316406 213 255 0 249 7
5.95845937728881836 8.16530704498291016 1.51351296901702881 213 255 0 249 7
5.9482121467590332 8.20255756378173828 1.46555650234222412 213 255 0 249 7
5.967071533203125 8.15255641937255859 1.4548192024230957 213 255 0 249 7
6.14330148696899414 7.66746234893798828 1.4649960994720459 213 255 0 249 7
6.06825447082519531 7.87076377868652344 1.46671497821807861 213 255 0 249 7
6.05204963684082031 7.91175174713134766 1.46531295776367188 213 255 0 249 7
6.09407854080200195 7.77851772308349609 1.47234714031219482 213 255 0 249 7
6.08863639831542969 7.81721639633178711 1.46973812580108643 213 255 0 249 7
6.11042165756225586 7.75872468948364258 1.46679079532623291 213 255 0 249 7
6.10483837127685547 7.78467321395874023 1.45498788356781006 213 255 0 249 7
6.01609992980957031 8.00361347198486328 1.46527528762817383 213 255 0 249 7
6.0177769660949707 8.01216220855712891 1.45457565784454346 213 255 0 249 7
6.00210285186767578 8.04232597351074219 1.46442759037017822 213 255 0 249 7
6.05465841293334961 7.87988519668579102 2.4175117015838623 213 255 0 249 7
6.03352689743041992 7.93548440933227539 2.41572976112365723 213 255 0 249 7
5.84414863586425781 8.53911018371582031 2.10541486740112305 213 255 0 249 7
5.85153436660766602 8.52195453643798828 2.20475172996520996 213 255 0 249 7
5.85035800933837891 8.52313041687011719 1.97906243801116943 213 255 0 249 7
5.84397363662719727 8.53687667846679688 2.07124447822570801 213 255 0 249 7
5.86460638046264648 8.48366928100585938 2.09906244277954102 213 255 0 249 7
5.85226726531982422 8.52027797698974609 2.02810907363891602 213 255 0 249 7
6.16869592666625977 7.59206724166870117 1.52450072765350342 213 255 0 249 7
6.17081785202026367 7.59000015258789062 1.5706249475479126 213 255 0 249 7
6.18429327011108398 7.55096673965454102 1.5625683069229126 213 255 0 249 7
6.19194555282592773 7.53484821319580078 1.52739536762237549 213 255 0 249 7
6.18664646148681641 7.54385900497436523 1.51915454864501953 213 255 0 249 7
6.07550621032714844 7.86625003814697266 2.21062493324279785 213 255 0 249 7
5.91869735717773438 8.28999900817871094 2.33624982833862305 213 255 0 249 7
5.99613618850708008 8.05734348297119141 2.34999990463256836 213 255 0 249 7
6.0017094612121582 8.01444149017333984 2.3779606819152832 213 255 0 249 7
6.07641363143920898 7.85400199890136719 1.81624996662139893 213 255 0 249 7
6.25551509857177734 7.50649213790893555 2.44523525238037109 213 255 0 249 7
6.24099969863891602 7.54798984527587891 2.44730162620544434 213 255 0 249 7
6.0666661262512207 7.89499998092651367 1.81874990463256836 213 255 0 249 7
6.06302213668823242 7.90625 1.76250004768371582 213 255 0 249 7
6.07113313674926758 7.875 1.99500000476837158 213 255 0 249 7
6.1709136962890625 7.59345436096191406 1.79121887683868408 213 255 0 249 7
6.18593120574951172 7.54807615280151367 1.81513130664825439 213 255 0 249 7
5.98409891128540039 8.10996532440185547 1.89796876907348633 213 255 0 249 7
5.99286651611328125 8.08606910705566406 1.77125000953674316 213 255 0 249 7
5.95930862426757812 8.21268558502197266 2.11796855926513672 213 255 0 249 7
5.96495342254638672 8.19853115081787109 2.16852259635925293 213 255 0 249 7
5.97826194763183594 8.13725852966308594 2.08874988555908203 213 255 0 249 7
5.97634649276733398 8.12711715698242188 1.78718745708465576 213 255 0 249 7
5.97181987762451172 8.14499950408935547 1.81375002861022949 213 255 0 249 7
6.16956806182861328 7.600341796875 1.7307281494140625 213 255 0 249 7
6.06345176696777344 7.92352628707885742 2.46420836448669434 213 255 0 249 7
5.88418388366699219 8.41054534912109375 1.78125 213 255 0 249 7
6.10281229019165039 7.78230094909667969 1.50578677654266357 213 255 0 249 7
6.09157466888427734 7.81500005722045898 1.56499993801116943 213 255 0 249 7
6.09303474426269531 7.81084918975830078 1.66312503814697266 213 255 0 249 7
6.08721446990966797 7.82521963119506836 1.72031247615814209 213 255 0 249 7
5.84319305419921875 8.51277828216552734 2.45186948776245117 213 255 0 249 7
5.82104635238647461 8.52459335327148438 2.42948412895202637 213 255 0 249 7
5.95352458953857422 8.21607303619384766 1.58893680572509766 213 255 0 249 7
5.96529245376586914 8.18101692199707031 1.62077724933624268 213 255 0 249 7
5.95312404632568359 8.21875 1.63874995708465576 213 255 0 249 7
5.95899295806884766 8.19040679931640625 1.54048871994018555 213 255 0 249 7
6.13424062728881836 7.71994686126708984 2.09261488914489746 213 255 0 249 7
6.1276397705078125 7.73030567169189453 2.04096364974975586 213 255 0 249 7
6.11345863342285156 7.75183582305908203 2.01186323165893555 213 255 0 249 7
6.15029335021972656 7.67499971389770508 2.0149998664855957 213 255 0 249 7
5.95184230804443359 8.23589134216308594 2.21616601943969727 213 255 0 249 7
5.97723388671875 8.1399993896484375 2.21687507629394531 213 255 0 249 7
5.93786191940307617 8.27209758758544922 2.05685758590698242 213 255 0 249 7
5.94799089431762695 8.24625015258789062 2.07937479019165039 213 255 0 249 7
5.92121791839599609 8.29657745361328125 1.78459286689758301 213 255 0 249 7
6.20415639877319336 7.50978565216064453 2.26010346412658691 213 255 0 249 7
6.17115497589111328 7.59499979019165039 2.14249992370605469 213 255 0 249 7
6.032806396484375 7.98798942565917969 1.66335880756378174 213 255 0 249 7
6.00845623016357422 8.03204917907714844 1.66499996185302734 213 255 0 249 7
5.99910640716552734 8.06624984741210938 1.72000002861022949 213 255 0 249 7
6.0170140266418457 8.01267910003662109 1.74328792095184326 213 255 0 249 7
6.01139163970947266 8.02499961853027344 1.75499999523162842 213 255 0 249 7
6.03246068954467773 7.98738002777099609 1.73062491416931152 213 255 0 249 7
5.91603851318359375 8.31819820404052734 1.98812508583068848 213 255 0 249 7
6.16650819778442383 7.62371349334716797 1.5421595573425293 213 255 0 249 7
6.00791168212890625 8.04500007629394531 1.93499994277954102 213 255 0 249 7
6.01698780059814453 8.02251815795898438 1.95976972579956055 213 255 0 249 7
6.02927064895629883 8.00152397155761719 1.95178747177124023 213 255 0 249 7
6.20001983642578125 7.52124977111816406 2.15593719482421875 213 255 0 249 7
6.19646549224853516 7.53514385223388672 2.12901473045349121 213 255 0 249 7
6.1855626106262207 7.55549764633178711 2.14847087860107422 213 255 0 249 7
5.92499971389770508 8.29668331146240234 2.07999992370605469 213 255 0 249 7
5.93612480163574219 8.27751541137695312 2.11499977111816406 213 255 0 249 7
5.92461681365966797 8.30134963989257812 2.16999983787536621 213 255 0 249 7
5.88705968856811523 8.35468387603759766 2.40489530563354492 213 255 0 249 7
5.90427970886230469 8.3343353271484375 2.43997383117675781 213 255 0 249 7
5.8791356086730957 8.40435028076171875 2.44174528121948242 213 255 0 249 7
5.89348697662353516 8.37485027313232422 2.45147824287414551 213 255 0 249 7
6.19461250305175781 7.70439529418945312 2.43074321746826172 213 255 0 249 7
6.15513992309570312 7.70681524276733398 2.45250916481018066 213 255 0 249 7
6.16943073272705078 7.75963306427001953 2.43397331237792969 213 255 0 249 7
5.90083885192871094 8.36946296691894531 2.23874998092651367 213 255 0 249 7
5.90350198745727539 8.35799407958984375 2.27999997138977051 213 255 0 249 7
5.91654062271118164 8.3120269775390625 2.31500005722045898 213 255 0 249 7
6.15053653717041016 7.67000007629394531 2.18499994277954102 213 255 0 249 7
5.99567890167236328 8.08228206634521484 1.88249993324279785 213 255 0 249 7
6.01164007186889648 8.02962112426757812 1.8954472541809082 213 255 0 249 7
5.87157821655273438 8.45171642303466797 1.5806959867477417 213 255 0 249 7
5.86236572265625 8.48715019226074219 1.64499998092651367 213 255 0 249 7
6.00111484527587891 8.04999923706054688 1.55999994277954102 213 255 0 249 7
5.9862208366394043 8.09124946594238281 1.56375002861022949 213 255 0 249 7
6.16745138168334961 7.61749982833862305 1.6325000524520874 213 255 0 249 7
5.86001110076904297 8.46530914306640625 1.5052788257598877 213 255 0 249 7
6.02185916900634766 7.98850488662719727 1.50898420810699463 213 255 0 249 7
5.9137568473815918 8.32122135162353516 1.81710946559906006 213 255 0 249 7
6.04895448684692383 7.94669628143310547 1.71968746185302734 213 255 0 249 7
6.0451812744140625 7.95624971389770508 1.76437497138977051 213 255 0 249 7
6.07647562026977539 7.83408403396606445 2.33921098709106445 213 255 0 249 7
5.93789863586425781 8.26505756378173828 1.80805575847625732 213 255 0 249 7
5.95367431640625 8.22572135925292969 1.784629225730896 213 255 0 249 7
5.96494483947753906 8.18306159973144531 1.72062492370605469 213 255 0 249 7
5.96383953094482422 8.18621921539306641 2.25427603721618652 213 255 0 249 7
5.97352981567382812 8.15444564819335938 2.27999973297119141 213 255 0 249 7
6.132476806640625 7.72007083892822266 1.59999990463256836 213 255 0 249 7
6.11961841583251953 7.73192453384399414 1.51407599449157715 213 255 0 249 7
6.13211393356323242 7.71979761123657227 1.54022598266601562 213 255 0 249 7
6.00533103942871094 8.05749320983886719 2.21000003814697266 213 255 0 249 7
6.01659917831420898 8.02475357055664062 2.16903281211853027 213 255 0 249 7
5.99556255340576172 8.09124279022216797 2.22562479972839355 213 255 0 249 7
6.01839256286621094 8.02321815490722656 2.25057482719421387 213 255 0 249 7
6.06438016891479492 7.91499996185302734 2.05500006675720215 213 255 0 249 7
6.03714656829833984 7.98668384552001953 2.03999996185302734 213 255 0 249 7
6.05727005004882812 7.93249988555908203 2 213 255 0 249 7
5.95872402191162109 8.21109294891357422 1.87935030460357666 213 255 0 249 7
5.97312784194946289 8.14528083801269531 1.88156247138977051 213 255 0 249 7
5.88638114929199219 8.40429306030273438 1.8131248950958252 213 255 0 249 7
5.8737177848815918 8.459197998046875 1.80562496185302734 213 255 0 249 7
6.04677104949951172 7.96499967575073242 2.16499996185302734 213 255 0 249 7
6.06464052200317383 7.91393470764160156 2.1712498664855957 213 255 0 249 7
6.06696939468383789 7.90607404708862305 2.22416353225708008 213 255 0 249 7
6.07994365692138672 7.84999990463256836 2.15374994277954102 213 255 0 249 7
6.09932184219360352 7.73009872436523438 2.38664054870605469 213 255 0 249 7
6.1056818962097168 7.75376415252685547 2.42407941818237305 213 255 0 249 7
6.13338947296142578 7.75974225997924805 2.45532679557800293 213 255 0 249 7
5.87267494201660156 8.46614837646484375 2.0123598575592041 213 255 0 249 7
5.87430524826049805 8.45353889465332031 2.04874992370605469 213 255 0 249 7
5.88530111312866211 8.4078216552734375 2.00343728065490723 213 255 0 249 7
6.01815414428710938 7.96153926849365234 2.38528680801391602 213 255 0 249 7
5.84487533569335938 8.53083610534667969 1.55341494083404541 213 255 0 249 7
5.85414361953735352 8.50675487518310547 1.58048605918884277 213 255 0 249 7
5.84125137329101562 8.53903579711914062 1.61312508583068848 213 255 0 249 7
6.08794307708740234 7.82489013671875 1.87625002861022949 213 255 0 249 7
6.10369968414306641 7.77999973297119141 1.91499996185302734 213 255 0 249 7
6.11204290390014648 7.75499963760375977 1.84499990940093994 213 255 0 249 7
6.09403228759765625 7.81078052520751953 1.94374990463256836 213 255 0 249 7
6.01242828369140625 8.06574726104736328 2.4591221809387207 213 255 0 249 7
6.09134006500244141 7.81999969482421875 2.00999999046325684 213 255 0 249 7
6.10704851150512695 7.7727813720703125 2.06125020980834961 213 255 0 249 7
6.08998203277587891 7.82252120971679688 2.10312509536743164 213 255 0 249 7
6.07738304138183594 7.8546905517578125 2.04187488555908203 213 255 0 249 7
5.88834762573242188 8.40131759643554688 2.14937472343444824 213 255 0 249 7
5.88304424285888672 8.41848182678222656 2.10796880722045898 213 255 0 249 7
5.87643814086914062 8.44534683227539062 2.14203119277954102 213 255 0 249 7
6.07362699508666992 7.79401874542236328 2.38120341300964355 213 255 0 249 7
5.98882150650024414 8.10670280456542969 2.17062473297119141 213 255 0 249 7
5.97984600067138672 8.12672901153564453 2.16471529006958008 213 255 0 249 7
5.97501945495605469 8.14499950408935547 2.125 213 255 0 249 7
5.85312080383300781 8.44415855407714844 2.3801429271697998 213 255 0 249 7
5.87544441223144531 8.41750049591064453 2.32999992370605469 213 255 0 249 7
5.84720087051391602 8.46625328063964844 2.36294817924499512 213 255 0 249 7
5.86666393280029297 8.44874954223632812 2.31762456893920898 213 255 0 249 7
6.03245401382446289 7.98652505874633789 1.54123282432556152 213 255 0 249 7
6.0135493278503418 8.01267337799072266 1.53830265998840332 213 255 0 249 7
5.99177789688110352 8.07333850860595703 1.47304153442382812 213 255 0 249 7
5.87648391723632812 8.46344184875488281 2.4602510929107666 213 255 0 249 7
5.84740114212036133 8.47369956970214844 2.43228983879089355 213 255 0 249 7
5.87276124954223633 8.39167976379394531 2.39013981819152832 213 255 0 249 7
5.83149909973144531 8.5149993896484375 2.36249971389770508 213 255 0 249 7
5.82683515548706055 8.50481796264648438 2.39578390121459961 213 255 0 249 7
5.86759471893310547 8.46978473663330078 1.54907536506652832 213 255 0 249 7
5.88413572311401367 8.39907550811767578 1.54150307178497314 213 255 0 249 7
5.9161834716796875 8.30832290649414062 1.73500001430511475 213 255 0 249 7
6.03310298919677734 7.98751544952392578 1.89187502861022949 213 255 0 249 7
6.16213369369506836 7.62822437286376953 2.25055956840515137 213 255 0 249 7
6.15940618515014648 7.62326240539550781 2.27791953086853027 213 255 0 249 7
6.1217646598815918 7.9019618034362793 2.42253947257995605 213 255 0 249 7
6.12536859512329102 7.84258651733398438 2.43703484535217285 213 255 0 249 7
6.09960794448852539 7.8476414680480957 2.45536327362060547 213 255 0 249 7
6.08614540100097656 7.87579345703125 2.45601820945739746 213 255 0 249 7
6.07561540603637695 7.89621782302856445 2.45948553085327148 213 255 0 249 7
5.94856786727905273 8.20499992370605469 1.51499998569488525 213 255 0 249 7
6.15096950531005859 7.67499971389770508 1.80749988555908203 213 255 0 249 7
6.1247711181640625 7.73400306701660156 1.84454977512359619 213 255 0 249 7
6.11379861831665039 7.75225162506103516 1.88999998569488525 213 255 0 249 7
6.13450431823730469 7.71470785140991211 2.12464809417724609 213 255 0 249 7
6.11753273010253906 7.74579429626464844 2.119293212890625 213 255 0 249 7
6.11706972122192383 7.74421072006225586 2.07474756240844727 213 255 0 249 7
6.05341672897338867 7.93693161010742188 1.86343741416931152 213 255 0 249 7
5.93705511093139648 8.26284694671630859 1.54303097724914551 213 255 0 249 7
5.91472911834716797 8.30499935150146484 1.61500000953674316 213 255 0 249 7
5.92511701583862305 8.28315544128417969 1.54021131992340088 213 255 0 249 7
6.00483846664428711 8.03661155700683594 1.61826932430267334 213 255 0 249 7
6.16942977905273438 7.59999990463256836 2.22312498092651367 213 255 0 249 7
6.1642608642578125 7.63405990600585938 2.16404342651367188 213 255 0 249 7
6.20230340957641602 7.506011962890625 1.92803013324737549 213 255 0 249 7
6.1902003288269043 7.65649747848510742 2.44707083702087402 213 255 0 249 7
6.21137714385986328 7.58782625198364258 2.45273113250732422 213 255 0 249 7
6.17586803436279297 7.65460300445556641 2.44985771179199219 213 255 0 249 7
6.21718120574951172 7.65238571166992188 2.43162059783935547 213 255 0 249 7
6.22880220413208008 7.59714651107788086 2.43781924247741699 213 255 0 249 7
5.94518518447875977 8.24580192565917969 1.84037399291992188 213 255 0 249 7
5.92406272888183594 8.29271125793457031 1.83499991893768311 213 255 0 249 7
5.91608762741088867 8.31359100341796875 1.94265127182006836 213 255 0 249 7
5.97379541397094727 8.14499950408935547 2.0149998664855957 213 255 0 249 7
5.98763847351074219 8.10499954223632812 2.02499985694885254 213 255 0 249 7
5.99576854705810547 8.08802318572998047 2.06937479972839355 213 255 0 249 7
5.99535942077636719 8.08552742004394531 1.9688410758972168 213 255 0 249 7
6.18567419052124023 7.55499982833862305 2.05249977111816406 213 255 0 249 7
6.17057514190673828 7.59749984741210938 2.05749988555908203 213 255 0 249 7
5.91318655014038086 8.29849147796630859 2.41746807098388672 213 255 0 249 7
5.94110488891601562 8.25742244720458984 2.45651412010192871 213 255 0 249 7
5.91956663131713867 8.30408859252929688 2.45079374313354492 213 255 0 249 7
5.9418635368347168 8.23405551910400391 2.44492840766906738 213 255 0 249 7
6.0468902587890625 7.96000003814697266 2.09500002861022949 213 255 0 249 7
6.06354522705078125 7.91728019714355469 2.1249997615814209 213 255 0 249 7
6.03899335861206055 7.98368024826049805 2.23334336280822754 213 255 0 249 7
6.03501510620117188 7.99154376983642578 2.09812498092651367 213 255 0 249 7
5.96029329299926758 8.20499992370605469 1.92499995231628418 213 255 0 249 7
5.96516609191894531 8.18803310394287109 1.94187498092651367 213 255 0 249 7
5.96034002304077148 8.20727920532226562 1.9924999475479126 213 255 0 249 7
6.15630865097045898 7.65673255920410156 2.07468748092651367 213 255 0 249 7
6.16885566711425781 7.60500001907348633 2.13812494277954102 213 255 0 249 7
6.15702724456787109 7.62887763977050781 1.51288414001464844 213 255 0 249 7
6.02901887893676758 7.98766136169433594 2.43858504295349121 213 255 0 249 7
6.05113410949707031 7.93550777435302734 2.4436337947845459 213 255 0 249 7
6.04983282089233398 7.96507549285888672 2.46381282806396484 213 255 0 249 7
6.03505849838256836 7.99720096588134766 2.46510219573974609 213 255 0 249 7
6.14794588088989258 7.68028068542480469 1.73281240463256836 213 255 0 249 7
6.16858339309692383 7.59177589416503906 1.76710236072540283 213 255 0 249 7
6.16393566131591797 7.63499975204467773 1.78999996185302734 213 255 0 249 7
6.16415166854858398 7.62684535980224609 1.76024496555328369 213 255 0 249 7
6.17070913314819336 7.5917963981628418 1.98517131805419922 213 255 0 249 7
6.16581439971923828 7.625 2.06750011444091797 213 255 0 249 7
6.16306495666503906 7.63656234741210938 2.04312515258789062 213 255 0 249 7
6.13434791564941406 7.71999979019165039 1.7974998950958252 213 255 0 249 7
5.86525535583496094 8.48509025573730469 1.96687495708465576 213 255 0 249 7
6.20649242401123047 7.49632835388183594 2.42369937896728516 213 255 0 249 7
6.17807579040527344 7.51914691925048828 2.39504241943359375 213 255 0 249 7
6.22503185272216797 7.5321507453918457 2.45176887512207031 213 255 0 249 7
6.19151735305786133 7.59285354614257812 2.44698596000671387 213 255 0 249 7
6.10538816452026367 7.77499961853027344 2.09625005722045898 213 255 0 249 7
5.8652491569519043 8.4862518310546875 1.79190444946289062 213 255 0 249 7
5.85150861740112305 8.51982688903808594 1.78437495231628418 213 255 0 249 7
6.08333206176757812 7.84050559997558594 1.93999993801116943 213 255 0 249 7
5.87977504730224609 8.41499996185302734 1.58499991893768311 213 255 0 249 7
5.87903308868408203 8.42510986328125 1.64625000953674316 213 255 0 249 7
5.89024734497070312 8.38394737243652344 1.64921951293945312 213 255 0 249 7
5.97254085540771484 8.1399993896484375 1.7112499475479126 213 255 0 249 7
6.01043415069580078 8.03221893310546875 1.82421875 213 255 0 249 7
6.03365945816040039 7.98749971389770508 1.8125 213 255 0 249 7
6.01619243621826172 8.01930141448974609 1.85312497615814209 213 255 0 249 7
6.08931541442871094 7.82849502563476562 2.25999975204467773 213 255 0 249 7
6.07423925399780273 7.8645777702331543 2.29622721672058105 213 255 0 249 7
6.09641551971435547 7.79058551788330078 2.32062172889709473 213 255 0 249 7
6.1594233512878418 7.61840438842773438 2.30874967575073242 213 255 0 249 7
6.15067148208618164 7.5903315544128418 2.38916754722595215 213 255 0 249 7
6.00995588302612305 8.00552558898925781 2.41574978828430176 213 255 0 249 7
5.98377132415771484 8.08698081970214844 2.41717195510864258 213 255 0 249 7
5.98441123962402344 8.13920497894287109 2.45393013954162598 213 255 0 249 7
5.96059799194335938 8.14995861053466797 2.40897536277770996 213 255 0 249 7
6.09282779693603516 7.82777547836303711 2.43958568572998047 213 255 0 249 7
6.16410732269287109 7.74532127380371094 2.44391155242919922 213 255 0 249 7
6.1447601318359375 7.79685068130493164 2.43716573715209961 213 255 0 249 7
6.14340829849243164 7.83435630798339844 2.42639017105102539 213 255 0 249 7
6.08812665939331055 7.75347518920898438 2.38200521469116211 213 255 0 249 7
6.11385154724121094 7.80073976516723633 2.45467066764831543 213 255 0 249 7
6.07172346115112305 7.86945390701293945 2.43564438819885254 213 255 0 249 7
6.04707527160644531 7.9489445686340332 1.60984373092651367 213 255 0 249 7
6.01740598678588867 8.00920867919921875 1.61585056781768799 213 255 0 249 7
6.07203006744384766 7.86103010177612305 1.53374648094177246 213 255 0 249 7
6.07181024551391602 7.86499977111816406 1.73500001430511475 213 255 0 249 7
6.06343269348144531 7.90374946594238281 1.68999993801116943 213 255 0 249 7
5.93658065795898438 8.26170921325683594 2.28624963760375977 213 255 0 249 7
6.05803823471069336 7.92956733703613281 1.94249987602233887 213 255 0 249 7
6.03693485260009766 7.98499965667724609 1.93499994277954102 213 255 0 249 7
6.18210506439208984 7.56678962707519531 1.73971545696258545 213 255 0 249 7
6.16720867156982422 7.61499977111816406 1.83499991893768311 213 255 0 249 7
6.14231491088867188 7.69999980926513672 1.875 213 255 0 249 7
6.16306114196777344 7.63812494277954102 1.85687494277954102 213 255 0 249 7
5.96996831893920898 8.12763404846191406 1.53587841987609863 213 255 0 249 7
6.16146659851074219 7.6399998664855957 1.67499995231628418 213 255 0 249 7
6.09952497482299805 7.79227638244628906 1.82656240463256836 213 255 0 249 7
6.1141815185546875 7.75018310546875 1.7592092752456665 213 255 0 249 7
5.90181493759155273 8.35078048706054688 2.32659554481506348 213 255 0 249 7
5.88878440856933594 8.34943675994873047 2.36499977111816406 213 255 0 249 7
6.02514076232910156 7.99659585952758789 2.31124973297119141 213 255 0 249 7
6.05751228332519531 7.91324615478515625 2.28624987602233887 213 255 0 249 7
6.04406547546386719 7.9524998664855957 2.28874969482421875 213 255 0 249 7
6.19705772399902344 7.53567218780517578 1.91759705543518066 213 255 0 249 7
6.18533086776733398 7.55519390106201172 1.97187495231628418 213 255 0 249 7
6.19757747650146484 7.52999973297119141 1.99874985218048096 213 255 0 249 7
6.1847081184387207 7.55455207824707031 1.88764166831970215 213 255 0 249 7
5.91261482238769531 8.31916046142578125 1.67570304870605469 213 255 0 249 7
5.93500995635986328 8.26909732818603516 1.62058281898498535 213 255 0 249 7
5.94127798080444336 8.25918769836425781 1.67010986804962158 213 255 0 249 7
6.05757904052734375 7.84742641448974609 2.38511371612548828 213 255 0 249 7
6.03517436981201172 7.95131587982177734 2.34742522239685059 213 255 0 249 7
6.05761146545410156 7.89534616470336914 2.33480930328369141 213 255 0 249 7
6.03352546691894531 7.918914794921875 2.37337589263916016 213 255 0 249 7
5.91231060028076172 8.33224868774414062 2.20624971389770508 213 255 0 249 7
5.9421844482421875 8.26289844512939453 2.16624975204467773 213 255 0 249 7
5.92997264862060547 8.28455352783203125 2.25233078002929688 213 255 0 249 7
5.89863061904907227 8.35693550109863281 1.52437496185302734 213 255 0 249 7
5.91233444213867188 8.31360912322998047 1.52773046493530273 213 255 0 249 7
5.85868120193481445 8.50064277648925781 1.68062496185302734 213 255 0 249 7
5.85599803924560547 8.5115203857421875 1.73874998092651367 213 255 0 249 7
5.84824085235595703 8.52499961853027344 1.65499997138977051 213 255 0 249 7
5.87488555908203125 8.45179462432861328 1.69999992847442627 213 255 0 249 7
5.84431648254394531 8.53525161743164062 1.71312499046325684 213 255 0 249 7
5.92765474319458008 8.24378395080566406 2.40904760360717773 213 255 0 249 7
5.90034341812133789 8.30898284912109375 2.38092756271362305 213 255 0 249 7
5.90383768081665039 8.3028564453125 2.36326432228088379 213 255 0 249 7
6.11436653137207031 7.74973535537719727 2.2787020206451416 213 255 0 249 7
6.13153600692749023 7.703125 2.27999997138977051 213 255 0 249 7
6.14293289184570312 7.68314886093139648 2.24203109741210938 213 255 0 249 7
5.96201038360595703 8.20499992370605469 2.04499983787536621 213 255 0 249 7
5.96670436859130859 8.18476676940917969 2.04374980926513672 213 255 0 249 7
6.16352701187133789 7.63500022888183594 1.94437491893768311 213 255 0 249 7
6.15084934234619141 7.67478466033935547 1.9524998664855957 213 255 0 249 7
6.16741228103637695 7.61499977111816406 1.9299999475479126 213 255 0 249 7
5.88304424285888672 8.41844844818115234 2.24036908149719238 213 255 0 249 7
6.19620275497436523 7.52728843688964844 2.32100296020507812 213 255 0 249 7
6.16424560546875 7.59499979019165039 2.33499979972839355 213 255 0 249 7
6.14521551132202148 7.6117396354675293 2.37236452102661133 213 255 0 249 7
5.92913913726806641 8.22846794128417969 2.36911892890930176 213 255 0 249 7
5.94509601593017578 8.22678947448730469 2.32239437103271484 213 255 0 249 7
5.94828319549560547 8.17085552215576172 2.38499975204467773 213 255 0 249 7
6.11667346954345703 7.74403095245361328 1.59148693084716797 213 255 0 249 7
6.11378383636474609 7.75187492370605469 1.65937495231628418 213 255 0 249 7
6.12925148010253906 7.72499990463256836 1.625 213 255 0 249 7
6.15357208251953125 7.66077899932861328 1.60531234741210938 213 255 0 249 7
6.02280998229980469 8.01382064819335938 2.10749983787536621 213 255 0 249 7
6.01473474502563477 8.03108406066894531 2.07670021057128906 213 255 0 249 7
6.00565099716186523 8.05632972717285156 2.09812498092651367 213 255 0 249 7
6.01402187347412109 8.03331279754638672 2.14624977111816406 213 255 0 249 7
6.16282939910888672 7.59974336624145508 2.42067956924438477 213 255 0 249 7
6.1449732780456543 7.65811967849731445 2.42557549476623535 213 255 0 249 7
6.12906074523925781 7.69741201400756836 2.42649197578430176 213 255 0 249 7
5.97219467163085938 8.14892292022705078 1.92624998092651367 213 255 0 249 7
5.9794464111328125 8.125 1.97249996662139893 213 255 0 249 7
6.06445407867431641 7.90280914306640625 1.63505053520202637 213 255 0 249 7
6.07450628280639648 7.85468006134033203 1.70000004768371582 213 255 0 249 7
6.07490730285644531 7.8553314208984375 1.5971524715423584 213 255 0 249 7
6.13342666625976562 7.71840763092041016 2.20632123947143555 213 255 0 249 7
6.11350727081298828 7.75717973709106445 2.17581701278686523 213 255 0 249 7
6.18487262725830078 7.55834531784057617 1.67602825164794922 213 255 0 249 7
6.17228221893310547 7.59000015258789062 1.63499999046325684 213 255 0 249 7
6.18376827239990234 7.55535697937011719 1.59563124179840088 213 255 0 249 7
6.07275867462158203 7.86940860748291016 2.0474998950958252 213 255 0 249 7
6.07462501525878906 7.86465740203857422 2.09625005722045898 213 255 0 249 7
5.89921855926513672 8.36900234222412109 1.93843746185302734 213 255 0 249 7
5.92639064788818359 8.28415870666503906 1.68714594841003418 213 255 0 249 7
5.94381284713745117 8.25083541870117188 1.73874998092651367 213 255 0 249 7
5.84022903442382812 8.54346656799316406 1.8587498664855957 213 255 0 249 7
5.85559988021850586 8.51024055480957031 1.89374995231628418 213 255 0 249 7
5.89548683166503906 8.36999988555908203 1.58500003814697266 213 255 0 249 7
5.91150188446044922 8.31665515899658203 1.5862499475479126 213 255 0 249 7
6.00651454925537109 8.05261421203613281 2.00562500953674316 213 255 0 249 7
6.10451507568359375 7.78046655654907227 2.16999983787536621 213 255 0 249 7
6.1130523681640625 7.75558948516845703 2.21640324592590332 213 255 0 249 7
5.98793983459472656 8.08988094329833984 1.52673304080963135 213 255 0 249 7
5.95535469055175781 8.18320751190185547 2.34274816513061523 213 255 0 249 7
5.9777522087097168 8.07656764984130859 2.38017439842224121 213 255 0 249 7
5.94825077056884766 8.17047691345214844 2.37078094482421875 213 255 0 249 7
5.89662885665893555 8.37239933013916016 1.86312496662139893 213 255 0 249 7
5.86822986602783203 8.47624969482421875 1.87999999523162842 213 255 0 249 7
5.8853754997253418 8.407196044921875 1.91124999523162842 213 255 0 249 7
5.87304115295410156 8.45896053314208984 1.97749996185302734 213 255 0 249 7
5.99550819396972656 8.08957862854003906 2.29835605621337891 213 255 0 249 7
5.97504425048828125 8.13924789428710938 2.3179924488067627 213 255 0 249 7
5.98480749130249023 8.11654090881347656 2.27494454383850098 213 255 0 249 7
5.97049856185913086 8.14749908447265625 1.63999998569488525 213 255 0 249 7
5.98181343078613281 8.10889625549316406 1.65406250953674316 213 255 0 249 7
5.99465179443359375 8.07630538940429688 1.63750004768371582 213 255 0 249 7
5.96393203735351562 8.18576335906982422 1.78156256675720215 213 255 0 249 7
5.95176315307617188 8.22831916809082031 1.74749994277954102 213 255 0 249 7
5.9571375846862793 8.21007251739501953 1.81712758541107178 213 255 0 249 7
6.06762075424194336 7.89106464385986328 2.25940728187561035 213 255 0 249 7
6.18445396423339844 7.55586671829223633 1.84610676765441895 213 255 0 249 7
6.19302606582641602 7.54491662979125977 1.84865343570709229 213 255 0 249 7
6.20939970016479492 7.53751182556152344 1.84698200225830078 213 255 0 249 7
6.17013216018676758 7.59499979019165039 1.90499997138977051 213 255 0 249 7
6.21560907363891602 7.51996946334838867 1.88122653961181641 213 255 0 249 7
6.17351818084716797 7.585662841796875 1.93624997138977051 213 255 0 249 7
5.85276985168457031 8.50096321105957031 2.26031231880187988 213 255 0 249 7
6.12017917633056641 7.6943364143371582 2.35587549209594727 213 255 0 249 7
6.09660243988037109 7.75807952880859375 2.35521507263183594 213 255 0 249 7
6.1212615966796875 7.71263790130615234 2.32996153831481934 213 255 0 249 7
6.13425493240356445 7.63680505752563477 2.38616418838500977 213 255 0 249 7
6.10588216781616211 7.70966005325317383 2.37480592727661133 213 255 0 249 7
5.86869430541992188 8.44937515258789062 2.30124998092651367 213 255 0 249 7
5.87178611755371094 8.46199798583984375 2.21691417694091797 213 255 0 249 7
6.06407928466796875 7.90343093872070312 1.54182314872741699 213 255 0 249 7
6.06574058532714844 7.90034580230712891 1.58519411087036133 213 255 0 249 7
6.07034587860107422 7.86999988555908203 1.61874997615814209 213 255 0 249 7
6.07523536682128906 7.85811042785644531 1.89499998092651367 213 255 0 249 7
6.0675044059753418 7.89467811584472656 1.95140624046325684 213 255 0 249 7
6.12949752807617188 7.72738552093505859 1.93691444396972656 213 255 0 249 7
6.11882305145263672 7.74385261535644531 1.97437500953674316 213 255 0 249 7
6.13738250732421875 7.70949363708496094 2.01609373092651367 213 255 0 249 7
6.18284034729003906 7.5625 2.2337498664855957 213 255 0 249 7
6.18499422073364258 7.55968093872070312 2.27709627151489258 213 255 0 249 7
6.19817590713500977 7.5358128547668457 2.27244448661804199 213 255 0 249 7
6.2011876106262207 7.50989484786987305 2.31789731979370117 213 255 0 249 7
6.17884016036987305 7.54766607284545898 2.34764242172241211 213 255 0 249 7
6.08106803894042969 7.80593204498291016 2.41327548027038574 213 255 0 249 7
6.08242130279541016 7.83624410629272461 1.78749990463256836 213 255 0 249 7
5.95796442031860352 8.22132396697998047 2.45758748054504395 213 255 0 249 7
5.96004295349121094 8.19293975830078125 2.45275640487670898 213 255 0 249 7
6.0194854736328125 8.03449726104736328 2.4499363899230957 213 255 0 249 7
5.98494720458984375 8.11742115020751953 2.43990087509155273 213 255 0 249 7
5.90033245086669922 8.37057399749755859 2.15124988555908203 213 255 0 249 7
5.91350650787353516 8.32740211486816406 2.11749982833862305 213 255 0 249 7
6.13226938247680664 7.72153091430664062 1.73069405555725098 213 255 0 249 7
6.14095783233642578 7.69945049285888672 1.66055512428283691 213 255 0 249 7
5.90271520614624023 8.35814094543457031 2.02203130722045898 213 255 0 249 7
5.88346767425537109 8.41349124908447266 1.69999992847442627 213 255 0 249 7
6.0703892707824707 7.88812446594238281 2.14437484741210938 213 255 0 249 7
5.93499994277954102 8.27540779113769531 1.91499996185302734 213 255 0 249 7
5.92477512359619141 8.29444026947021484 1.98932468891143799 213 255 0 249 7
5.94227218627929688 8.26105976104736328 1.99437499046325684 213 255 0 249 7
5.82640600204467773 8.56030178070068359 1.47472786903381348 213 255 0 249 7
5.81549930572509766 8.60215377807617188 1.46366429328918457 213 255 0 249 7
5.81427669525146484 8.61803722381591797 1.45607864856719971 213 255 0 249 7
5.83482789993286133 8.55254173278808594 1.74749994277954102 213 255 0 249 7
5.82871198654174805 8.56783962249755859 1.7982860803604126 213 255 0 249 7
5.80605316162109375 8.6207122802734375 1.48500573635101318 213 255 0 249 7
5.79473114013671875 8.63339424133300781 1.51352012157440186 213 255 0 249 7
5.81701231002807617 8.52835273742675781 2.41404151916503906 213 255 0 249 7
5.8059539794921875 8.61709213256835938 2.30742573738098145 213 255 0 249 7
5.81435489654541016 8.60352230072021484 2.24499988555908203 213 255 0 249 7
5.8256378173828125 8.56431293487548828 1.52087271213531494 213 255 0 249 7
5.82663965225219727 8.56505393981933594 1.65783333778381348 213 255 0 249 7
5.80224990844726562 8.62882518768310547 1.70511329174041748 213 255 0 249 7
5.80525445938110352 8.62532997131347656 1.77535557746887207 213 255 0 249 7
5.82066679000854492 8.58858108520507812 1.74904298782348633 213 255 0 249 7
5.80440378189086914 8.62359905242919922 2.18977522850036621 213 255 0 249 7
5.82458782196044922 8.57548141479492188 2.15115785598754883 213 255 0 249 7
5.81346702575683594 8.605224609375 1.95000004768371582 213 255 0 249 7
5.80502462387084961 8.62124347686767578 1.99557316303253174 213 255 0 249 7
5.79491567611694336 8.63805294036865234 1.63853490352630615 213 255 0 249 7
5.80556011199951172 8.62785625457763672 1.56055724620819092 213 255 0 249 7
5.83172607421875 8.56207561492919922 1.92312502861022949 213 255 0 249 7
5.8047795295715332 8.62483024597167969 1.85363340377807617 213 255 0 249 7
5.8187408447265625 8.59271621704101562 1.86062502861022949 213 255 0 249 7
5.81402873992919922 8.60999488830566406 1.80750644207000732 213 255 0 249 7
5.80458545684814453 8.62446498870849609 2.12761688232421875 213 255 0 249 7
5.81168270111083984 8.60999965667724609 2.1249997615814209 213 255 0 249 7
5.78430652618408203 8.59498977661132812 2.38782262802124023 213 255 0 249 7
5.7577214241027832 8.61314487457275391 2.42379093170166016 213 255 0 249 7
5.77850198745727539 8.59627056121826172 2.42028284072875977 213 255 0 249 7
5.78412866592407227 8.61621189117431641 2.47071933746337891 213 255 0 249 7
5.80937862396240234 8.5742950439453125 2.44437718391418457 213 255 0 249 7
5.7952122688293457 8.60160064697265625 2.45732331275939941 213 255 0 249 7
5.77100229263305664 8.61393642425537109 2.38303351402282715 213 255 0 249 7
5.80088090896606445 8.61463832855224609 2.33737373352050781 213 255 0 249 7
5.79711484909057617 8.56582736968994141 2.40462827682495117 213 255 0 249 7
5.81027555465698242 8.56067180633544922 2.36481833457946777 213 255 0 249 7
5.82038974761962891 8.57909393310546875 2.31438922882080078 213 255 0 249 7
5.83305788040161133 8.55343055725097656 2.24589014053344727 213 255 0 249 7
5.81031990051269531 8.61499977111816406 1.61500000953674316 213 255 0 249 7
5.81370925903320312 8.60740089416503906 1.68843746185302734 213 255 0 249 7
5.82487154006958008 8.57282352447509766 1.6099998950958252 213 255 0 249 7
5.80503559112548828 8.62784004211425781 1.64529383182525635 213 255 0 249 7
5.82411766052246094 8.57860374450683594 1.98624992370605469 213 255 0 249 7
5.8347620964050293 8.55450153350830078 2.02499985694885254 213 255 0 249 7
5.82313680648803711 8.57932853698730469 2.06423544883728027 213 255 0 249 7
5.80938148498535156 8.6124114990234375 2.04284834861755371 213 255 0 249 7
6.35929679870605469 7.0779728889465332 2.34370851516723633 213 255 0 249 7
6.36807441711425781 7.04699802398681641 2.31836652755737305 213 255 0 249 7
6.21549224853515625 7.41155147552490234 2.3808448314666748 213 255 0 249 7
6.3526005744934082 7.10997438430786133 1.92645430564880371 213 255 0 249 7
6.34332942962646484 7.13827800750732422 1.97679626941680908 213 255 0 249 7
6.31617593765258789 7.21852302551269531 1.91546750068664551 213 255 0 249 7
6.28121805191040039 7.28257036209106445 1.93403244018554688 213 255 0 249 7
6.27364635467529297 7.32028770446777344 1.92104971408843994 213 255 0 249 7
6.28621864318847656 7.283843994140625 1.98102283477783203 213 255 0 249 7
6.34927082061767578 7.10576868057250977 2.36245274543762207 213 255 0 249 7
6.33728933334350586 7.11082792282104492 2.38419365882873535 213 255 0 249 7
6.3349757194519043 7.14140892028808594 2.3600306510925293 213 255 0 249 7
6.32409381866455078 7.14403772354125977 2.39097309112548828 213 255 0 249 7
6.3001093864440918 7.25432872772216797 1.94877004623413086 213 255 0 249 7
6.30299091339111328 7.21711492538452148 1.94439518451690674 213 255 0 249 7
6.30655097961425781 7.24548006057739258 1.91712164878845215 213 255 0 249 7
6.26299619674682617 7.34842586517333984 2.30201125144958496 213 255 0 249 7
6.26393651962280273 7.36699151992797852 2.25291228294372559 213 255 0 249 7
6.26898956298828125 7.33519887924194336 1.96834635734558105 213 255 0 249 7
6.27151870727539062 7.34522008895874023 2.00744009017944336 213 255 0 249 7
6.22143173217773438 7.43821191787719727 2.34067368507385254 213 255 0 249 7
6.19127416610717773 7.50435972213745117 2.36250638961791992 213 255 0 249 7
6.26145029067993164 7.34477519989013672 2.32505154609680176 213 255 0 249 7
6.23579025268554688 7.33754777908325195 2.38563919067382812 213 255 0 249 7
6.26134681701660156 7.3247227668762207 2.35508847236633301 213 255 0 249 7
6.2966008186340332 7.25182294845581055 2.35277652740478516 213 255 0 249 7
6.28164577484130859 7.27616262435913086 2.3495030403137207 213 255 0 249 7
6.26646327972412109 7.24523305892944336 2.39147782325744629 213 255 0 249 7
6.37169837951660156 7.068939208984375 1.99644589424133301 213 255 0 249 7
6.34320354461669922 7.15886402130126953 2.00832462310791016 213 255 0 249 7
6.32358694076538086 7.18721628189086914 2.00050973892211914 213 255 0 249 7
6.36316728591918945 7.06732511520385742 1.92230641841888428 213 255 0 249 7
6.3640289306640625 7.06769227981567383 1.97156453132629395 213 255 0 249 7
6.32093143463134766 7.19926214218139648 1.9314124584197998 213 255 0 249 7
6.31229734420776367 7.16978836059570312 2.39728379249572754 213 255 0 249 7
6.33857154846191406 7.16851711273193359 2.11877989768981934 213 255 0 249 7
6.32290315628051758 7.18782186508178711 2.11466598510742188 213 255 0 249 7
6.35459518432617188 7.12338924407958984 2.12397003173828125 213 255 0 249 7
6.36730623245239258 7.08118438720703125 2.25632333755493164 213 255 0 249 7
6.37273645401000977 7.05096435546875 2.23531341552734375 213 255 0 249 7
6.34796142578125 7.13232135772705078 2.27173733711242676 213 255 0 249 7
6.35718059539794922 7.07672882080078125 2.29900288581848145 213 255 0 249 7
6.36952018737792969 7.04771709442138672 2.28070974349975586 213 255 0 249 7
6.28652572631835938 7.2863001823425293 1.91486012935638428 213 255 0 249 7
6.3625950813293457 7.1011500358581543 2.05374979972839355 213 255 0 249 7
6.37232494354248047 7.05950546264648438 2.09903383255004883 213 255 0 249 7
6.30818271636962891 7.23585987091064453 1.97813618183135986 213 255 0 249 7
6.31551265716552734 7.20999956130981445 2.05562496185302734 213 255 0 249 7
6.32291460037231445 7.18429470062255859 2.20049452781677246 213 255 0 249 7
6.36673307418823242 7.08927011489868164 2.20085310935974121 213 255 0 249 7
6.34078788757324219 7.16168880462646484 2.24975037574768066 213 255 0 249 7
6.2731328010559082 7.34346771240234375 2.24373364448547363 213 255 0 249 7
6.28830909729003906 7.28334951400756836 2.29784369468688965 213 255 0 249 7
6.27880382537841797 7.30581426620483398 2.24649214744567871 213 255 0 249 7
6.27009296417236328 7.34999990463256836 2.12999987602233887 213 255 0 249 7
6.27571630477905273 7.31499958038330078 2.14249992370605469 213 255 0 249 7
6.27292823791503906 7.33750009536743164 2.17999982833862305 213 255 0 249 7
6.30864906311035156 7.22692251205444336 2.20067596435546875 213 255 0 249 7
6.29417562484741211 7.26650238037109375 2.12613844871520996 213 255 0 249 7
6.29421520233154297 7.26999950408935547 2.2037498950958252 213 255 0 249 7
6.32204341888427734 7.18781137466430664 2.23139500617980957 213 255 0 249 7
6.31126689910888672 7.21247196197509766 2.28598666191101074 213 255 0 249 7
6.29234886169433594 7.27158355712890625 2.25510621070861816 213 255 0 249 7
6.27678060531616211 7.30999946594238281 2.02250003814697266 213 255 0 249 7
6.27657365798950195 7.31500005722045898 2.08500003814697266 213 255 0 249 7
6.27400684356689453 7.33500003814697266 2.07250022888183594 213 255 0 249 7
6.37445163726806641 7.06020212173461914 2.17493224143981934 213 255 0 249 7
6.32205390930175781 7.17768335342407227 2.35797381401062012 213 255 0 249 7
6.29669952392578125 7.23125314712524414 2.38383603096008301 213 255 0 249 7
6.29923868179321289 7.25499963760375977 2.06750011444091797 213 255 0 249 7
6.30546045303344727 7.24081945419311523 2.12791275978088379 213 255 0 249 7
6.34803962707519531 7.13266229629516602 1.91443634033203125 213 255 0 249 7
6.28349113464355469 7.22125864028930664 2.40937089920043945 213 255 0 249 7
6.25704383850097656 7.22770547866821289 2.41404271125793457 213 255 0 249 7
6.25526332855224609 7.27550220489501953 2.39164400100708008 213 255 0 249 7
6.37379550933837891 7.06570816040039062 2.08011722564697266 213 255 0 249 7
6.23965644836425781 7.38495302200317383 2.34235072135925293 213 255 0 249 7
6.34006357192993164 7.13466501235961914 2.32231998443603516 213 255 0 249 7
6.32201719284057617 7.17932748794555664 2.29221320152282715 213 255 0 249 7
6.34060573577880859 7.12918615341186523 2.29258012771606445 213 255 0 249 7
