ply
format ascii 1.0
element vertex 625
property float x
property float y
property float z
property uchar red
property uchar green
property uchar blue
property uchar alpha
property uint label
end_header
6.05622673034667969 2.49453544616699219 0.0621270574629306793 1 0 103 178 78
6.11023283004760742 2.51744890213012695 0.0568800494074821472 1 0 103 178 78
6.13335990905761719 2.52860856056213379 0.054341290146112442 1 0 103 178 78
6.13324499130249023 2.51177549362182617 0.0935407280921936035 1 0 103 178 78
6.11505699157714844 2.4998939037322998 0.128898605704307556 1 0 103 178 78
6.13289642333984375 2.49658679962158203 0.147530496120452881 1 0 103 178 78
6.06904935836791992 2.48780059814453125 0.100723728537559509 1 0 103 178 78
6.0550532341003418 2.47694706916809082 0.148942351341247559 1 0 103 178 78
6.23639965057373047 2.50044727325439453 0.186277568340301514 1 0 103 178 78
6.23708629608154297 2.50960564613342285 0.162551403045654297 1 0 103 178 78
6.28589868545532227 2.52483916282653809 0.16381344199180603 1 0 103 178 78
6.46649742126464844 2.54573488235473633 0.525765895843505859 1 0 103 178 78
6.49522161483764648 2.53797459602355957 0.46938738226890564 1 0 103 178 78
6.45588254928588867 2.53672504425048828 0.407087475061416626 1 0 103 178 78
6.484954833984375 2.5388791561126709 0.331327348947525024 1 0 103 178 78
6.06598377227783203 2.47670269012451172 0.145642802119255066 1 0 103 178 78
6.49770212173461914 2.53818869590759277 0.255281776189804077 1 0 103 178 78
6.49682092666625977 2.52083277702331543 0.262078732252120972 1 0 103 178 78
6.4851832389831543 2.54094123840332031 0.272534817457199097 1 0 103 178 78
6.51467466354370117 2.53162121772766113 0.238910213112831116 1 0 103 178 78
6.11626863479614258 2.46924448013305664 0.161324232816696167 1 0 103 178 78
6.18881988525390625 2.47968006134033203 0.188321828842163086 1 0 103 178 78
6.52228498458862305 2.52797317504882812 0.188729897141456604 1 0 103 178 78
6.49278688430786133 2.47748136520385742 0.224823892116546631 1 0 103 178 78
6.52322578430175781 2.5360112190246582 0.222150683403015137 1 0 103 178 78
6.30712604522705078 2.53421807289123535 0.167329356074333191 1 0 103 178 78
6.32175111770629883 2.51622343063354492 0.198372572660446167 1 0 103 178 78
6.36339807510375977 2.53684401512145996 0.198398992419242859 1 0 103 178 78
6.45658683776855469 2.54053735733032227 0.468049436807632446 1 0 103 178 78
6.47341251373291016 2.53327679634094238 0.491761922836303711 1 0 103 178 78
6.48531341552734375 2.53901457786560059 0.41932341456413269 1 0 103 178 78
6.06011009216308594 2.45371460914611816 0.166498824954032898 1 0 103 178 78
6.18942356109619141 2.51398110389709473 0.146661669015884399 1 0 103 178 78
6.17958259582519531 2.51918768882751465 0.12989354133605957 1 0 103 178 78
6.19136381149291992 2.53703141212463379 0.0693737342953681946 1 0 103 178 78
6.1623077392578125 2.52395462989807129 0.0909909456968307495 1 0 103 178 78
6.21691083908081055 2.5304410457611084 0.136715561151504517 1 0 103 178 78
6.154632568359375 2.47761058807373047 0.165134772658348083 1 0 103 178 78
6.4725341796875 2.53978180885314941 0.371000409126281738 1 0 103 178 78
6.07648897171020508 2.44669985771179199 0.163059979677200317 1 0 103 178 78
6.46481037139892578 2.54456639289855957 0.243248060345649719 1 0 103 178 78
6.31053256988525391 2.5703577995300293 0.108515441417694092 1 0 103 178 78
6.32431316375732422 2.57029247283935547 0.142804861068725586 1 0 103 178 78
6.29738903045654297 2.57671523094177246 0.0697411969304084778 1 0 103 178 78
6.27147388458251953 2.55834341049194336 0.0931715741753578186 1 0 103 178 78
6.45281124114990234 2.59782600402832031 0.152566045522689819 1 0 103 178 78
6.43858623504638672 2.6148383617401123 0.103738158941268921 1 0 103 178 78
6.44129037857055664 2.6047971248626709 0.142474040389060974 1 0 103 178 78
6.45403718948364258 2.63597631454467773 0.0575304962694644928 1 0 103 178 78
6.40020179748535156 2.55108165740966797 0.189210817217826843 1 0 103 178 78
6.42810392379760742 2.5551152229309082 0.18869607150554657 1 0 103 178 78
6.45178508758544922 2.57235002517700195 0.168812096118927002 1 0 103 178 78
6.39212274551391602 2.61497330665588379 0.0590255968272686005 1 0 103 178 78
6.35263633728027344 2.59621024131774902 0.0659276470541954041 1 0 103 178 78
6.54179906845092773 2.52655982971191406 0.17813718318939209 1 0 103 178 78
6.47863197326660156 2.55334758758544922 0.186702340841293335 1 0 103 178 78
6.48364019393920898 2.54861688613891602 0.228313982486724854 1 0 103 178 78
6.233245849609375 2.54544901847839355 0.102471873164176941 1 0 103 178 78
6.27850961685180664 2.5497584342956543 0.143094584345817566 1 0 103 178 78
6.42230749130249023 2.55455946922302246 0.220876112580299377 1 0 103 178 78
6.43595266342163086 2.55547046661376953 0.2377738356590271 1 0 103 178 78
6.44776439666748047 2.54561495780944824 0.203540399670600891 1 0 103 178 78
6.44675636291503906 2.54867839813232422 0.347014307975769043 1 0 103 178 78
6.44617986679077148 2.54566073417663574 0.373233944177627563 1 0 103 178 78
6.47611904144287109 2.53876543045043945 0.315618395805358887 1 0 103 178 78
6.43988561630249023 2.55552268028259277 0.277498334646224976 1 0 103 178 78
6.44633722305297852 2.55583858489990234 0.313762128353118896 1 0 103 178 78
6.35561323165893555 2.55137252807617188 0.162675768136978149 1 0 103 178 78
6.39559459686279297 2.56667947769165039 0.163424819707870483 1 0 103 178 78
6.34670162200927734 2.58002257347106934 0.106279328465461731 1 0 103 178 78
6.3711848258972168 2.58014583587646484 0.144373923540115356 1 0 103 178 78
6.38688135147094727 2.59515666961669922 0.102789692580699921 1 0 103 178 78
6.48478317260742188 2.56651711463928223 0.16599138081073761 1 0 103 178 78
6.55392265319824219 2.55333471298217773 0.158803686499595642 1 0 103 178 78
6.91585636138916016 2.39575386047363281 0.149505361914634705 1 0 103 178 78
6.86427402496337891 2.36865663528442383 0.214057281613349915 1 0 103 178 78
6.82378244400024414 2.38398075103759766 0.211117491126060486 1 0 103 178 78
6.86049842834472656 2.36768460273742676 0.177637964487075806 1 0 103 178 78
6.88089609146118164 2.36998462677001953 0.164107337594032288 1 0 103 178 78
7.00560760498046875 2.35619664192199707 0.147015705704689026 1 0 103 178 78
7.02898311614990234 2.33947396278381348 0.141926094889640808 1 0 103 178 78
6.97033405303955078 2.37009811401367188 0.14708845317363739 1 0 103 178 78
6.74223899841308594 2.47384810447692871 0.152858003973960876 1 0 103 178 78
6.69610738754272461 2.50407719612121582 0.149397194385528564 1 0 103 178 78
6.89790105819702148 2.34671640396118164 0.177510157227516174 1 0 103 178 78
6.90779781341552734 2.3456730842590332 0.213089495897293091 1 0 103 178 78
6.93479156494140625 2.34446191787719727 0.162003174424171448 1 0 103 178 78
7.00030708312988281 2.30513668060302734 0.223517611622810364 1 0 103 178 78
7.00893259048461914 2.30030560493469238 0.276124119758605957 1 0 103 178 78
6.55527400970458984 2.50962090492248535 0.187583759427070618 1 0 103 178 78
6.58307933807373047 2.50719094276428223 0.169008165597915649 1 0 103 178 78
6.6231236457824707 2.47656416893005371 0.188374057412147522 1 0 103 178 78
6.61340761184692383 2.48652482032775879 0.223005443811416626 1 0 103 178 78
6.57454442977905273 2.5075523853302002 0.223589599132537842 1 0 103 178 78
6.584991455078125 2.49749588966369629 0.189739316701889038 1 0 103 178 78
6.60170364379882812 2.50049138069152832 0.174336224794387817 1 0 103 178 78
6.6445159912109375 2.51615405082702637 0.15574924647808075 1 0 103 178 78
6.77890348434448242 2.40628218650817871 0.214137092232704163 1 0 103 178 78
6.76043558120727539 2.42643237113952637 0.164832189679145813 1 0 103 178 78
6.80536317825317383 2.39390397071838379 0.169177457690238953 1 0 103 178 78
6.73252248764038086 2.4275202751159668 0.172248959541320801 1 0 103 178 78
6.80424261093139648 2.3902127742767334 0.183285519480705261 1 0 103 178 78
6.7263031005859375 2.42800760269165039 0.187195166945457458 1 0 103 178 78
6.6909937858581543 2.47466921806335449 0.164986282587051392 1 0 103 178 78
6.87082624435424805 2.40574121475219727 0.155510708689689636 1 0 103 178 78
6.81887054443359375 2.4325563907623291 0.156083986163139343 1 0 103 178 78
6.97699832916259766 2.33165645599365234 0.157731339335441589 1 0 103 178 78
7.00312614440917969 2.30091476440429688 0.166852712631225586 1 0 103 178 78
6.98776531219482422 2.29891395568847656 0.175142258405685425 1 0 103 178 78
6.94580745697021484 2.32663249969482422 0.176586270332336426 1 0 103 178 78
6.977325439453125 2.3032073974609375 0.205416217446327209 1 0 103 178 78
6.65868043899536133 2.4669187068939209 0.220311656594276428 1 0 103 178 78
6.67735481262207031 2.45939159393310547 0.172753408551216125 1 0 103 178 78
6.72552299499511719 2.43526077270507812 0.221782416105270386 1 0 103 178 78
6.67916250228881836 2.45238471031188965 0.188311085104942322 1 0 103 178 78
6.59377622604370117 2.54963350296020508 0.146732494235038757 1 0 103 178 78
7.10516643524169922 2.14616537094116211 0.117492437362670898 1 0 103 178 78
7.08451223373413086 2.2189490795135498 0.103793464601039886 1 0 103 178 78
7.0832972526550293 2.19814610481262207 0.132460698485374451 1 0 103 178 78
7.07580661773681641 2.15491533279418945 0.157405614852905273 1 0 103 178 78
7.0825200080871582 2.10242533683776855 0.170805186033248901 1 0 103 178 78
7.120025634765625 2.1456449031829834 0.0483171045780181885 1 0 103 178 78
7.03911066055297852 2.37171006202697754 0.0533897578716278076 1 0 103 178 78
7.05011224746704102 2.17162156105041504 0.183465301990509033 1 0 103 178 78
7.12640285491943359 2.15949630737304688 0.0342373400926589966 1 0 103 178 78
7.10028696060180664 2.10959863662719727 0.146790310740470886 1 0 103 178 78
7.0500640869140625 2.19748687744140625 0.197921320796012878 1 0 103 178 78
7.04704618453979492 2.19365620613098145 0.227568268775939941 1 0 103 178 78
7.05632781982421875 2.18324542045593262 0.179453298449516296 1 0 103 178 78
7.04471826553344727 2.22004318237304688 0.224969044327735901 1 0 103 178 78
7.05020570755004883 2.2308495044708252 0.162131905555725098 1 0 103 178 78
7.0353240966796875 2.2816162109375 0.156231865286827087 1 0 103 178 78
7.08512973785400391 2.30935359001159668 0.0541599094867706299 1 0 103 178 78
7.07276344299316406 2.27125787734985352 0.102389432489871979 1 0 103 178 78
7.08228540420532227 2.29215335845947266 0.07335633784532547 1 0 103 178 78
7.05833721160888672 2.25794744491577148 0.141849979758262634 1 0 103 178 78
7.0471196174621582 2.32814502716064453 0.126273423433303833 1 0 103 178 78
7.06839561462402344 2.29929471015930176 0.104247525334358215 1 0 103 178 78
7.0383296012878418 2.25060582160949707 0.268200933933258057 1 0 103 178 78
7.02577495574951172 2.26867389678955078 0.299795299768447876 1 0 103 178 78
7.02463293075561523 2.28292727470397949 0.272551566362380981 1 0 103 178 78
7.12389469146728516 2.00485420227050781 0.152879029512405396 1 0 103 178 78
7.11802768707275391 2.02931356430053711 0.15346197783946991 1 0 103 178 78
7.14606046676635742 2.00785350799560547 0.125119462609291077 1 0 103 178 78
7.1208033561706543 2.07298707962036133 0.133700743317604065 1 0 103 178 78
6.86170864105224609 2.4554600715637207 0.0523683503270149231 1 0 103 178 78
7.03617715835571289 2.26238346099853516 0.309669017791748047 1 0 103 178 78
7.10896110534667969 2.1556248664855957 0.078125 1 0 103 178 78
7.09917068481445312 2.21717023849487305 0.0430048108100891113 1 0 103 178 78
7.03983736038208008 2.23058843612670898 0.283732354640960693 1 0 103 178 78
7.04826450347900391 2.21320486068725586 0.253878951072692871 1 0 103 178 78
7.15781021118164062 2.03170537948608398 0.0477847792208194733 1 0 103 178 78
7.16119384765625 1.99958860874176025 0.0878387615084648132 1 0 103 178 78
7.14330577850341797 2.09849357604980469 0.0355292521417140961 1 0 103 178 78
7.13167953491210938 2.10000014305114746 0.061249997466802597 1 0 103 178 78
7.17402410507202148 2.01725149154663086 0.0323935896158218384 1 0 103 178 78
6.94476032257080078 2.41776275634765625 0.0548755675554275513 1 0 103 178 78
7.17573165893554688 1.98851621150970459 0.048908628523349762 1 0 103 178 78
7.16255569458007812 1.96351015567779541 0.127535760402679443 1 0 103 178 78
7.03622102737426758 2.24525666236877441 0.227138444781303406 1 0 103 178 78
7.02298831939697266 2.28769469261169434 0.165052369236946106 1 0 103 178 78
7.02905893325805664 2.26315760612487793 0.210890859365463257 1 0 103 178 78
7.0142064094543457 2.29221820831298828 0.232444837689399719 1 0 103 178 78
7.08264589309692383 2.25698328018188477 0.056935574859380722 1 0 103 178 78
7.07724618911743164 2.25031447410583496 0.0767103210091590881 1 0 103 178 78
7.13257455825805664 2.06999993324279785 0.104999996721744537 1 0 103 178 78
7.04258441925048828 2.35207223892211914 0.0783781483769416809 1 0 103 178 78
6.3346867561340332 1.65853774547576904 0.281555116176605225 1 0 103 178 78
6.32522106170654297 1.67233479022979736 0.27177274227142334 1 0 103 178 78
6.33781528472900391 1.65590596199035645 0.237206816673278809 1 0 103 178 78
6.27431917190551758 1.8128352165222168 0.349999964237213135 1 0 103 178 78
6.26489734649658203 1.84562492370605469 0.378749996423721313 1 0 103 178 78
6.33130788803100586 1.6706082820892334 0.174067050218582153 1 0 103 178 78
6.14980840682983398 2.17694759368896484 0.476249992847442627 1 0 103 178 78
6.15554952621459961 2.16739559173583984 0.509915947914123535 1 0 103 178 78
6.28874540328979492 1.77002644538879395 0.21895165741443634 1 0 103 178 78
6.28107309341430664 1.7999953031539917 0.268750011920928955 1 0 103 178 78
6.29592657089233398 1.76146137714385986 0.290198475122451782 1 0 103 178 78
6.18466567993164062 2.08107280731201172 0.396874964237213135 1 0 103 178 78
6.19925880432128906 2.0426630973815918 0.42168879508972168 1 0 103 178 78
6.2235713005065918 1.96636581420898438 0.378125011920928955 1 0 103 178 78
6.23166131973266602 1.93847250938415527 0.452656269073486328 1 0 103 178 78
6.2232213020324707 1.96063542366027832 0.423295557498931885 1 0 103 178 78
6.31289100646972656 1.69666576385498047 0.208576500415802002 1 0 103 178 78
6.09668445587158203 2.41855072975158691 0.298551946878433228 1 0 103 178 78
6.10162210464477539 2.40349531173706055 0.352306872606277466 1 0 103 178 78
6.09958553314208984 2.40332818031311035 0.397666871547698975 1 0 103 178 78
6.12762832641601562 2.2526392936706543 0.319999992847442627 1 0 103 178 78
6.11203193664550781 2.2959592342376709 0.317499995231628418 1 0 103 178 78
6.11211109161376953 2.29361486434936523 0.360469281673431396 1 0 103 178 78
6.15188789367675781 2.18493223190307617 0.22999998927116394 1 0 103 178 78
6.14723110198974609 2.19261908531188965 0.201249986886978149 1 0 103 178 78
6.10124588012695312 2.3587498664855957 0.353749990463256836 1 0 103 178 78
6.10015010833740234 2.3600001335144043 0.275000005960464478 1 0 103 178 78
6.29553651809692383 1.76210546493530273 0.258952081203460693 1 0 103 178 78
6.31461000442504883 1.70131635665893555 0.242379933595657349 1 0 103 178 78
6.30505943298339844 1.7282555103302002 0.301497757434844971 1 0 103 178 78
6.15469646453857422 2.16999983787536621 0.347499996423721313 1 0 103 178 78
6.1299738883972168 2.23690366744995117 0.350538164377212524 1 0 103 178 78
6.1747441291809082 2.11425185203552246 0.435000002384185791 1 0 103 178 78
6.17482471466064453 2.10733413696289062 0.459999978542327881 1 0 103 178 78
6.14702224731445312 2.195343017578125 0.310000002384185791 1 0 103 178 78
6.17424631118774414 2.11439085006713867 0.254687488079071045 1 0 103 178 78
6.23963642120361328 1.92526745796203613 0.168198913335800171 1 0 103 178 78
6.20465612411499023 2.02984428405761719 0.16964346170425415 1 0 103 178 78
6.29349517822265625 1.76375007629394531 0.387499988079071045 1 0 103 178 78
6.27200889587402344 1.81867527961730957 0.452187478542327881 1 0 103 178 78
6.26215648651123047 1.85326147079467773 0.257499992847442627 1 0 103 178 78
6.26000499725341797 1.86757516860961914 0.297406315803527832 1 0 103 178 78
6.26409816741943359 1.84499990940093994 0.339999973773956299 1 0 103 178 78
6.25088787078857422 1.88379645347595215 0.443749994039535522 1 0 103 178 78
6.239898681640625 1.92010951042175293 0.487499982118606567 1 0 103 178 78
6.23798608779907227 1.93113255500793457 0.204774931073188782 1 0 103 178 78
6.25976848602294922 1.88377261161804199 0.169504061341285706 1 0 103 178 78
6.25570535659790039 1.875 0.224999994039535522 1 0 103 178 78
6.11234521865844727 2.28759288787841797 0.190536469221115112 1 0 103 178 78
6.09478187561035156 2.41564607620239258 0.411727309226989746 1 0 103 178 78
6.09530448913574219 2.40730977058410645 0.449252933263778687 1 0 103 178 78
6.23211860656738281 1.93949413299560547 0.515625 1 0 103 178 78
6.27179622650146484 1.82971179485321045 0.558125019073486328 1 0 103 178 78
6.26541280746459961 1.84428119659423828 0.520312488079071045 1 0 103 178 78
6.32651042938232422 1.66049861907958984 0.523222386837005615 1 0 103 178 78
6.11969661712646484 2.2646331787109375 0.512499988079071045 1 0 103 178 78
6.12586069107055664 2.24124860763549805 0.538583219051361084 1 0 103 178 78
6.190032958984375 2.08236479759216309 0.168598204851150513 1 0 103 178 78
6.15277194976806641 2.18155860900878906 0.171101883053779602 1 0 103 178 78
6.18622827529907227 2.08607935905456543 0.194374993443489075 1 0 103 178 78
6.17051935195922852 2.13380718231201172 0.166900455951690674 1 0 103 178 78
6.19708538055419922 2.04820346832275391 0.367758393287658691 1 0 103 178 78
6.10258579254150391 2.33750009536743164 0.490000009536743164 1 0 103 178 78
6.10483646392822266 2.31201720237731934 0.53913801908493042 1 0 103 178 78
6.09888744354248047 2.38827371597290039 0.458332329988479614 1 0 103 178 78
6.13576602935791016 2.223480224609375 0.368750005960464478 1 0 103 178 78
6.168731689453125 2.1284332275390625 0.380625009536743164 1 0 103 178 78
6.14679193496704102 2.1896824836730957 0.435000002384185791 1 0 103 178 78
6.1187744140625 2.26821470260620117 0.41053423285484314 1 0 103 178 78
6.11930942535400391 2.26111936569213867 0.465102732181549072 1 0 103 178 78
6.10823822021484375 2.30175352096557617 0.475876003503799438 1 0 103 178 78
6.10396099090576172 2.32929730415344238 0.305937528610229492 1 0 103 178 78
6.1008448600769043 2.36374998092651367 0.433750003576278687 1 0 103 178 78
6.10454416275024414 2.32415103912353516 0.396250009536743164 1 0 103 178 78
6.13482475280761719 2.23022031784057617 0.259999990463256836 1 0 103 178 78
6.11359405517578125 2.29374980926513672 0.259999990463256836 1 0 103 178 78
6.17310190200805664 2.11145305633544922 0.503749966621398926 1 0 103 178 78
6.33721160888671875 1.64398658275604248 0.473710745573043823 1 0 103 178 78
6.33173704147338867 1.6659245491027832 0.226153150200843811 1 0 103 178 78
6.30263137817382812 1.74443447589874268 0.158077061176300049 1 0 103 178 78
6.26617336273193359 1.84999990463256836 0.192499995231628418 1 0 103 178 78
6.28307962417602539 1.80937492847442627 0.164999991655349731 1 0 103 178 78
6.23356866836547852 1.93499994277954102 0.35499998927116394 1 0 103 178 78
6.22900056838989258 1.95343732833862305 0.32374998927116394 1 0 103 178 78
6.205810546875 2.0170292854309082 0.321249991655349731 1 0 103 178 78
6.20287513732910156 2.03328561782836914 0.229062497615814209 1 0 103 178 78
6.19887828826904297 2.04250001907348633 0.300000011920928955 1 0 103 178 78
6.21794319152832031 1.98249995708465576 0.245000004768371582 1 0 103 178 78
6.16933155059814453 2.13029718399047852 0.318749994039535522 1 0 103 178 78
6.17712211608886719 2.10244369506835938 0.347524702548980713 1 0 103 178 78
6.29357624053955078 1.75455546379089355 0.503078281879425049 1 0 103 178 78
6.3053278923034668 1.7243882417678833 0.541249990463256836 1 0 103 178 78
6.29028701782226562 1.77393198013305664 0.558125019073486328 1 0 103 178 78
6.32398366928100586 1.67445385456085205 0.430155485868453979 1 0 103 178 78
6.30281734466552734 1.73505735397338867 0.367812514305114746 1 0 103 178 78
6.30877876281738281 1.71810817718505859 0.454705953598022461 1 0 103 178 78
6.10377025604248047 2.33129143714904785 0.2421875 1 0 103 178 78
6.1012115478515625 2.36993980407714844 0.195350721478462219 1 0 103 178 78
6.10405731201171875 2.3368988037109375 0.17335723340511322 1 0 103 178 78
6.22988748550415039 1.9456641674041748 0.279062509536743164 1 0 103 178 78
6.32399988174438477 1.67638278007507324 0.377817541360855103 1 0 103 178 78
6.33037424087524414 1.65715038776397705 0.335527300834655762 1 0 103 178 78
6.33484029769897461 1.65891480445861816 0.367472380399703979 1 0 103 178 78
6.33565092086791992 1.65348553657531738 0.419277310371398926 1 0 103 178 78
6.19042158126831055 2.0617830753326416 0.481249988079071045 1 0 103 178 78
6.21039628982543945 2.0068509578704834 0.492500007152557373 1 0 103 178 78
6.19174671173095703 2.06007099151611328 0.54375004768371582 1 0 103 178 78
6.11753654479980469 2.42302989959716797 1.39156484603881836 1 0 103 178 78
6.10749197006225586 2.38513278961181641 1.04913341999053955 1 0 103 178 78
6.10550212860107422 2.33500003814697266 1.00874996185302734 1 0 103 178 78
6.10672760009765625 2.32625007629394531 0.95937502384185791 1 0 103 178 78
6.10701751708984375 2.38465476036071777 0.985717236995697021 1 0 103 178 78
6.29444026947021484 1.79099702835083008 0.801428258419036865 1 0 103 178 78
6.27634000778198242 1.83535087108612061 0.802355051040649414 1 0 103 178 78
6.30995607376098633 1.79919171333312988 0.845097661018371582 1 0 103 178 78
6.17072105407714844 2.14224457740783691 1.1648104190826416 1 0 103 178 78
6.17435503005981445 2.15051364898681641 1.14194738864898682 1 0 103 178 78
6.12210893630981445 2.25650238990783691 0.571046173572540283 1 0 103 178 78
6.22237300872802734 1.97127115726470947 0.76718747615814209 1 0 103 178 78
6.21026706695556641 2.0095970630645752 0.71562492847442627 1 0 103 178 78
6.33754205703735352 1.64972710609436035 0.570921778678894043 1 0 103 178 78
6.33865451812744141 1.64384520053863525 0.654652237892150879 1 0 103 178 78
6.33563566207885742 1.63655853271484375 0.609466731548309326 1 0 103 178 78
6.307403564453125 1.90842306613922119 1.07652187347412109 1 0 103 178 78
6.28020906448364258 1.90544271469116211 1.04842984676361084 1 0 103 178 78
6.30537223815917969 1.90215826034545898 1.03700149059295654 1 0 103 178 78
6.25475692749023438 1.90273022651672363 1.06631612777709961 1 0 103 178 78
6.25719165802001953 1.86371338367462158 0.661602318286895752 1 0 103 178 78
6.26536798477172852 1.85355079174041748 0.722731471061706543 1 0 103 178 78
6.231292724609375 1.94740653038024902 0.727499961853027344 1 0 103 178 78
6.27445411682128906 1.83193755149841309 0.741235792636871338 1 0 103 178 78
6.29580831527709961 1.77181863784790039 0.753598332405090332 1 0 103 178 78
6.16219282150268555 2.14499998092651367 0.884999990463256836 1 0 103 178 78
6.24776124954223633 1.89499998092651367 0.596249997615814209 1 0 103 178 78
6.25519609451293945 1.88720536231994629 0.84647369384765625 1 0 103 178 78
6.27817010879516602 1.85925424098968506 0.838459312915802002 1 0 103 178 78
6.26117515563964844 1.86522698402404785 0.814038455486297607 1 0 103 178 78
6.29027557373046875 1.8388291597366333 0.859759271144866943 1 0 103 178 78
6.37356996536254883 1.60632550716400146 1.12137806415557861 1 0 103 178 78
6.3549952507019043 1.62215077877044678 1.12368929386138916 1 0 103 178 78
6.10714435577392578 2.32192111015319824 1.1111222505569458 1 0 103 178 78
6.13045692443847656 2.24672460556030273 1.16187500953674316 1 0 103 178 78
6.12274551391601562 2.26820588111877441 1.22016537189483643 1 0 103 178 78
6.21786880493164062 1.98112523555755615 0.604999959468841553 1 0 103 178 78
6.22896766662597656 1.95282816886901855 0.552500009536743164 1 0 103 178 78
6.20600700378417969 2.02187490463256836 0.570624947547912598 1 0 103 178 78
6.14826679229736328 2.19396781921386719 0.845242023468017578 1 0 103 178 78
6.11335134506225586 2.28611898422241211 0.774815976619720459 1 0 103 178 78
6.12660312652587891 2.24591374397277832 0.74930727481842041 1 0 103 178 78
6.13720369338989258 2.21312451362609863 0.894999980926513672 1 0 103 178 78
6.20314359664916992 2.03124141693115234 0.655624985694885254 1 0 103 178 78
6.15440559387207031 2.17377066612243652 1.19574534893035889 1 0 103 178 78
6.13926076889038086 2.2215421199798584 1.21616888046264648 1 0 103 178 78
6.13867855072021484 2.21172523498535156 0.990375101566314697 1 0 103 178 78
6.1010127067565918 2.37852573394775391 0.570969581604003906 1 0 103 178 78
6.10355186462402344 2.34194540977478027 0.585931181907653809 1 0 103 178 78
6.37028264999389648 1.6788942813873291 1.01770198345184326 1 0 103 178 78
6.11536979675292969 2.39559078216552734 1.29304134845733643 1 0 103 178 78
6.11387157440185547 2.2964627742767334 1.23260581493377686 1 0 103 178 78
6.10937404632568359 2.33249998092651367 1.22531247138977051 1 0 103 178 78
6.14311552047729492 2.25723147392272949 1.22712171077728271 1 0 103 178 78
6.1438908576965332 2.30719852447509766 1.24496185779571533 1 0 103 178 78
6.11406707763671875 2.30122804641723633 1.25728940963745117 1 0 103 178 78
6.11358356475830078 2.36648797988891602 1.26250004768371582 1 0 103 178 78
6.11767721176147461 2.28294086456298828 1.12147605419158936 1 0 103 178 78
6.11076164245605469 2.29379367828369141 1.09993994235992432 1 0 103 178 78
6.16087102890014648 2.24397897720336914 1.0265880823135376 1 0 103 178 78
6.36774301528930664 1.67053985595703125 0.930881321430206299 1 0 103 178 78
6.10470676422119141 2.33489370346069336 0.692499995231628418 1 0 103 178 78
6.10059356689453125 2.37975215911865234 0.648087143898010254 1 0 103 178 78
6.32649040222167969 1.68945813179016113 0.657612383365631104 1 0 103 178 78
6.32536029815673828 1.69469583034515381 0.707428455352783203 1 0 103 178 78
6.25142717361450195 1.91405975818634033 0.940349578857421875 1 0 103 178 78
6.14344453811645508 2.23245549201965332 1.045318603515625 1 0 103 178 78
6.25499963760375977 1.87669062614440918 0.794999957084655762 1 0 103 178 78
6.24958229064941406 1.8878169059753418 0.750802159309387207 1 0 103 178 78
6.15894079208374023 2.15861654281616211 0.978169798851013184 1 0 103 178 78
6.11610507965087891 2.39377117156982422 1.24110865592956543 1 0 103 178 78
6.37837696075439453 1.61840438842773438 1.09801483154296875 1 0 103 178 78
6.3645472526550293 1.63628685474395752 1.09991943836212158 1 0 103 178 78
6.36307287216186523 1.6858363151550293 1.07330596446990967 1 0 103 178 78
6.36481666564941406 1.63730883598327637 1.05634880065917969 1 0 103 178 78
6.36410760879516602 1.6869816780090332 1.09889721870422363 1 0 103 178 78
6.34983253479003906 1.68560469150543213 0.843492865562438965 1 0 103 178 78
6.35731410980224609 1.63337492942810059 0.816324532032012939 1 0 103 178 78
6.35374641418457031 1.65270209312438965 0.865635216236114502 1 0 103 178 78
6.13897705078125 2.22273659706115723 1.05520856380462646 1 0 103 178 78
6.12798357009887695 2.24304795265197754 1.06432235240936279 1 0 103 178 78
6.16432428359985352 2.3349158763885498 1.26135945320129395 1 0 103 178 78
6.32347011566162109 1.68090724945068359 0.58081287145614624 1 0 103 178 78
6.34487342834472656 1.64350950717926025 0.772484660148620605 1 0 103 178 78
6.35446691513061523 1.62977111339569092 0.775473594665527344 1 0 103 178 78
6.34716033935546875 1.65689921379089355 0.796835839748382568 1 0 103 178 78
6.31449222564697266 1.74777483940124512 0.78044426441192627 1 0 103 178 78
6.3177342414855957 1.78683316707611084 0.822573602199554443 1 0 103 178 78
6.11106395721435547 2.33500003814697266 1.31499993801116943 1 0 103 178 78
6.11721324920654297 2.38499999046325684 1.32999992370605469 1 0 103 178 78
6.12225198745727539 2.39466047286987305 1.41703951358795166 1 0 103 178 78
6.18363666534423828 2.09125614166259766 0.574999988079071045 1 0 103 178 78
6.15421819686889648 2.16702890396118164 0.562031209468841553 1 0 103 178 78
6.17100143432617188 2.12689352035522461 0.649002194404602051 1 0 103 178 78
6.3000025749206543 1.76100254058837891 0.732536613941192627 1 0 103 178 78
6.31138372421264648 1.72401249408721924 0.699032127857208252 1 0 103 178 78
6.21372795104980469 1.99702310562133789 0.860955476760864258 1 0 103 178 78
6.20299720764160156 2.21159863471984863 1.21701407432556152 1 0 103 178 78
6.20139837265014648 2.17693686485290527 1.18583512306213379 1 0 103 178 78
6.18863821029663086 2.17762160301208496 1.22621309757232666 1 0 103 178 78
6.1670994758605957 2.15800714492797852 1.19960653781890869 1 0 103 178 78
6.1780238151550293 2.16347360610961914 1.21182417869567871 1 0 103 178 78
6.20512485504150391 2.18382668495178223 1.22688090801239014 1 0 103 178 78
6.27136516571044922 1.82960057258605957 0.594375014305114746 1 0 103 178 78
6.30168294906616211 1.7327505350112915 0.599581062793731689 1 0 103 178 78
6.27718067169189453 1.81624853610992432 0.625793099403381348 1 0 103 178 78
6.14729785919189453 2.18955230712890625 0.622812509536743164 1 0 103 178 78
6.1636052131652832 2.14031648635864258 0.894999980926513672 1 0 103 178 78
6.18902778625488281 2.06920838356018066 0.952651679515838623 1 0 103 178 78
6.17804050445556641 2.10491228103637695 0.965902924537658691 1 0 103 178 78
6.18681478500366211 2.07062482833862305 0.889999985694885254 1 0 103 178 78
6.29529953002929688 1.74611842632293701 0.625 1 0 103 178 78
6.11250972747802734 2.28999996185302734 0.957499980926513672 1 0 103 178 78
6.12439727783203125 2.25388550758361816 1.01190555095672607 1 0 103 178 78
6.10803985595703125 2.30249977111816406 1.02125000953674316 1 0 103 178 78
6.13093805313110352 2.23621892929077148 0.943124949932098389 1 0 103 178 78
6.21457290649414062 2.20818543434143066 1.14141011238098145 1 0 103 178 78
6.19452047348022461 2.18092989921569824 1.13929176330566406 1 0 103 178 78
6.21146059036254883 2.17908525466918945 1.16546499729156494 1 0 103 178 78
6.23341035842895508 1.9328993558883667 0.912823796272277832 1 0 103 178 78
6.21447181701660156 1.98980152606964111 0.920899450778961182 1 0 103 178 78
6.15960836410522461 2.26911234855651855 1.25592172145843506 1 0 103 178 78
6.15920162200927734 2.29799079895019531 1.25568008422851562 1 0 103 178 78
6.10554933547973633 2.35934090614318848 0.821249961853027344 1 0 103 178 78
6.10763645172119141 2.32250022888183594 0.777656197547912598 1 0 103 178 78
6.10803747177124023 2.32569003105163574 0.865012288093566895 1 0 103 178 78
6.26041555404663086 1.93283379077911377 0.974182605743408203 1 0 103 178 78
6.27766656875610352 1.91900169849395752 0.957946538925170898 1 0 103 178 78
6.28863811492919922 1.92101562023162842 0.970262467861175537 1 0 103 178 78
6.37455606460571289 1.63715410232543945 0.935137450695037842 1 0 103 178 78
6.36694860458374023 1.65041756629943848 0.906645655632019043 1 0 103 178 78
6.35442495346069336 1.6820138692855835 0.899854362010955811 1 0 103 178 78
6.30010318756103516 1.74163675308227539 0.654996395111083984 1 0 103 178 78
6.31580495834350586 1.67874109745025635 0.622300088405609131 1 0 103 178 78
6.23366737365722656 1.93307614326477051 0.832276344299316406 1 0 103 178 78
6.17425870895385742 2.15205073356628418 1.10658931732177734 1 0 103 178 78
6.16270256042480469 2.15108776092529297 1.11401176452636719 1 0 103 178 78
6.18544864654541016 2.08626174926757812 0.719999969005584717 1 0 103 178 78
6.12580442428588867 2.25223875045776367 0.798749983310699463 1 0 103 178 78
6.11244678497314453 2.29557991027832031 0.801214873790740967 1 0 103 178 78
6.11613750457763672 2.28301215171813965 0.848303914070129395 1 0 103 178 78
6.11861944198608398 2.26565718650817871 0.88524162769317627 1 0 103 178 78
6.13055133819580078 2.23749995231628418 0.684999942779541016 1 0 103 178 78
6.11499977111816406 2.27644729614257812 0.629999995231628418 1 0 103 178 78
6.23502159118652344 1.93335127830505371 0.61562502384185791 1 0 103 178 78
6.26006507873535156 1.86506187915802002 0.629650235176086426 1 0 103 178 78
6.22249412536621094 1.97069227695465088 0.668437480926513672 1 0 103 178 78
6.23314380645751953 1.93395090103149414 0.685000002384185791 1 0 103 178 78
6.34092187881469727 1.64066123962402344 0.69137495756149292 1 0 103 178 78
6.3568572998046875 1.62627613544464111 0.722928404808044434 1 0 103 178 78
6.35295486450195312 1.63408851623535156 0.657917439937591553 1 0 103 178 78
6.32541799545288086 1.74038112163543701 0.800027012825012207 1 0 103 178 78
6.34465646743774414 1.69892096519470215 0.810776412487030029 1 0 103 178 78
6.10886096954345703 2.30024838447570801 0.915516912937164307 1 0 103 178 78
6.28484916687011719 1.79470705986022949 0.696249961853027344 1 0 103 178 78
6.28176403045654297 1.7956690788269043 0.662397503852844238 1 0 103 178 78
6.25612545013427734 1.9262162446975708 1.10292112827301025 1 0 103 178 78
6.28116941452026367 1.93985879421234131 1.09561729431152344 1 0 103 178 78
6.10334491729736328 2.38146734237670898 0.730537712574005127 1 0 103 178 78
6.10456752777099609 2.38357377052307129 0.787716507911682129 1 0 103 178 78
6.17272520065307617 2.11908578872680664 0.794999957084655762 1 0 103 178 78
6.18999958038330078 2.07409524917602539 0.844999969005584717 1 0 103 178 78
6.20218276977539062 2.03375005722045898 0.817499995231628418 1 0 103 178 78
6.16146039962768555 2.1535041332244873 0.707499980926513672 1 0 103 178 78
6.32354307174682617 1.71665489673614502 0.74646759033203125 1 0 103 178 78
6.33244132995605469 1.69119131565093994 0.778252661228179932 1 0 103 178 78
6.14549779891967773 2.19465517997741699 0.681874990463256836 1 0 103 178 78
6.16523933410644531 2.14056015014648438 0.747500002384185791 1 0 103 178 78
6.17584514617919922 2.11331844329833984 0.772499978542327881 1 0 103 178 78
6.10900354385375977 2.37285447120666504 1.11235594749450684 1 0 103 178 78
6.11087846755981445 2.30901622772216797 1.13114655017852783 1 0 103 178 78
6.10924959182739258 2.33296704292297363 1.13698720932006836 1 0 103 178 78
6.11245584487915039 2.38522696495056152 1.15992951393127441 1 0 103 178 78
6.36481046676635742 1.69006216526031494 1.04156410694122314 1 0 103 178 78
6.37499475479125977 1.6506417989730835 0.99071425199508667 1 0 103 178 78
6.37351560592651367 1.63595390319824219 1.01373302936553955 1 0 103 178 78
6.38423633575439453 1.62602782249450684 1.003570556640625 1 0 103 178 78
6.37494850158691406 1.67191910743713379 0.990933060646057129 1 0 103 178 78
6.14075088500976562 2.2129673957824707 1.11125004291534424 1 0 103 178 78
6.14699125289916992 2.19771242141723633 1.15374994277954102 1 0 103 178 78
6.16470861434936523 2.14206171035766602 1.06478428840637207 1 0 103 178 78
6.20269966125488281 2.16930437088012695 1.06743466854095459 1 0 103 178 78
6.20250701904296875 2.18259501457214355 1.10736286640167236 1 0 103 178 78
6.1747889518737793 2.21749114990234375 1.02586483955383301 1 0 103 178 78
6.17969274520874023 2.14099955558776855 1.07928657531738281 1 0 103 178 78
6.22228670120239258 2.18631625175476074 1.09881234169006348 1 0 103 178 78
6.1904759407043457 2.17174983024597168 1.05109357833862305 1 0 103 178 78
6.17451572418212891 2.14930486679077148 1.051247239112854 1 0 103 178 78
6.18327665328979492 2.1946265697479248 1.03324615955352783 1 0 103 178 78
6.16411542892456055 2.16280817985534668 1.04310488700866699 1 0 103 178 78
6.14646339416503906 2.19693565368652344 0.799687504768371582 1 0 103 178 78
6.26328516006469727 1.88763821125030518 1.00473189353942871 1 0 103 178 78
6.2825322151184082 1.89531159400939941 0.991857707500457764 1 0 103 178 78
6.3006739616394043 1.89033949375152588 0.976298213005065918 1 0 103 178 78
6.24474716186523438 1.90708935260772705 1.00791943073272705 1 0 103 178 78
6.28554487228393555 1.91054356098175049 1.01518547534942627 1 0 103 178 78
6.11731338500976562 2.40530562400817871 1.36215388774871826 1 0 103 178 78
6.30477714538574219 1.83022844791412354 0.899918735027313232 1 0 103 178 78
6.26507282257080078 1.88248884677886963 0.907771050930023193 1 0 103 178 78
6.25098991394042969 1.89086830615997314 0.90247809886932373 1 0 103 178 78
6.28622674942016602 1.9106132984161377 0.941404223442077637 1 0 103 178 78
6.27430582046508789 1.8981403112411499 0.925888657569885254 1 0 103 178 78
6.27236032485961914 1.87387466430664062 0.868194699287414551 1 0 103 178 78
6.28922653198242188 1.88533389568328857 0.916898369789123535 1 0 103 178 78
6.30668067932128906 1.88233590126037598 0.930280447006225586 1 0 103 178 78
6.10960197448730469 2.29999995231628418 0.560000002384185791 1 0 103 178 78
6.10832834243774414 2.30375003814697266 0.643437504768371582 1 0 103 178 78
6.10649394989013672 2.37249994277954102 0.887499988079071045 1 0 103 178 78
6.10516595840454102 2.3880162239074707 0.887426793575286865 1 0 103 178 78
6.10578203201293945 2.3200690746307373 0.9136466383934021 1 0 103 178 78
6.10820627212524414 2.39327263832092285 0.951937615871429443 1 0 103 178 78
6.3133697509765625 1.71783745288848877 0.147298604249954224 1 0 103 178 78
6.32446193695068359 1.76174402236938477 0.127167463302612305 1 0 103 178 78
6.24242210388183594 1.93253254890441895 0.153486743569374084 1 0 103 178 78
6.15786504745483398 2.24619412422180176 0.139843747019767761 1 0 103 178 78
6.17914199829101562 2.24091935157775879 0.0793142542243003845 1 0 103 178 78
6.1667943000793457 2.25157475471496582 0.119347214698791504 1 0 103 178 78
6.14975833892822266 2.3068540096282959 0.0872924849390983582 1 0 103 178 78
6.32708454132080078 1.70588028430938721 0.143138661980628967 1 0 103 178 78
6.29059410095214844 1.92123544216156006 0.0783013030886650085 1 0 103 178 78
6.17276811599731445 2.14832377433776855 0.153590381145477295 1 0 103 178 78
6.32678890228271484 1.8265763521194458 0.0665191933512687683 1 0 103 178 78
6.21920299530029297 2.00897693634033203 0.153867378830909729 1 0 103 178 78
6.30898427963256836 1.8660353422164917 0.0744847133755683899 1 0 103 178 78
6.2835688591003418 1.82925474643707275 0.150704771280288696 1 0 103 178 78
6.2665400505065918 1.88616943359375 0.151017338037490845 1 0 103 178 78
6.31935930252075195 1.83421683311462402 0.109100408852100372 1 0 103 178 78
6.3465580940246582 1.7905811071395874 0.0619644485414028168 1 0 103 178 78
6.34920358657836914 1.77318334579467773 0.0834311842918395996 1 0 103 178 78
6.13161039352416992 2.25967764854431152 0.160040244460105896 1 0 103 178 78
6.11565065383911133 2.30560612678527832 0.156975418329238892 1 0 103 178 78
6.16982460021972656 2.27431011199951172 0.0807861760258674622 1 0 103 178 78
6.19914579391479492 2.22922611236572266 0.0629184916615486145 1 0 103 178 78
6.19486093521118164 2.27109646797180176 0.063983723521232605 1 0 103 178 78
6.17526578903198242 2.2893378734588623 0.0625053197145462036 1 0 103 178 78
6.31227636337280273 1.82474625110626221 0.129581376910209656 1 0 103 178 78
6.30207681655883789 1.7765812873840332 0.144471421837806702 1 0 103 178 78
6.15251493453979492 2.30873489379882812 0.119755536317825317 1 0 103 178 78
6.14435100555419922 2.30434012413024902 0.135949134826660156 1 0 103 178 78
6.20809078216552734 2.14420604705810547 0.0949999988079071045 1 0 103 178 78
6.22443103790283203 2.09447765350341797 0.109999999403953552 1 0 103 178 78
6.22408103942871094 2.06182265281677246 0.137152180075645447 1 0 103 178 78
6.20928192138671875 2.11948108673095703 0.131704896688461304 1 0 103 178 78
6.18976449966430664 2.10744571685791016 0.154147669672966003 1 0 103 178 78
6.13486433029174805 2.35524773597717285 0.133627995848655701 1 0 103 178 78
6.14024066925048828 2.33799862861633301 0.111422516405582428 1 0 103 178 78
6.26600742340087891 1.97580516338348389 0.11353379487991333 1 0 103 178 78
6.28476715087890625 1.91791558265686035 0.120958752930164337 1 0 103 178 78
6.27520608901977539 1.91027390956878662 0.139191776514053345 1 0 103 178 78
6.3349909782409668 1.79319655895233154 0.0900629609823226929 1 0 103 178 78
6.33921146392822266 1.76494705677032471 0.11480335146188736 1 0 103 178 78
6.19317102432250977 2.19474625587463379 0.0783159583806991577 1 0 103 178 78
6.18943929672241211 2.15712642669677734 0.138072088360786438 1 0 103 178 78
6.18225193023681641 2.21530508995056152 0.119041711091995239 1 0 103 178 78
6.19572257995605469 2.16937494277954102 0.119999997317790985 1 0 103 178 78
6.25274038314819336 1.99404478073120117 0.133598744869232178 1 0 103 178 78
6.23351287841796875 2.06029272079467773 0.120023973286151886 1 0 103 178 78
6.26542472839355469 1.98650801181793213 0.0780229046940803528 1 0 103 178 78
6.48975133895874023 1.69790947437286377 0.2325773686170578 1 0 103 178 78
6.51121091842651367 1.70176267623901367 0.257325023412704468 1 0 103 178 78
6.49141550064086914 1.68921351432800293 0.313613682985305786 1 0 103 178 78
6.52327489852905273 1.69388103485107422 0.305390357971191406 1 0 103 178 78
6.45557308197021484 1.6851736307144165 0.257003098726272583 1 0 103 178 78
6.46249675750732422 1.69485998153686523 0.221958354115486145 1 0 103 178 78
6.45454645156860352 1.68283402919769287 0.310418605804443359 1 0 103 178 78
6.44912099838256836 1.67721188068389893 0.364093303680419922 1 0 103 178 78
6.51670742034912109 1.70262300968170166 0.21856987476348877 1 0 103 178 78
6.48607301712036133 1.69327640533447266 0.186399832367897034 1 0 103 178 78
6.52934169769287109 1.69492793083190918 0.389900535345077515 1 0 103 178 78
6.47666263580322266 1.67895793914794922 0.351438164710998535 1 0 103 178 78
6.39416646957397461 1.67054629325866699 0.16599351167678833 1 0 103 178 78
6.41275739669799805 1.67199885845184326 0.201833575963973999 1 0 103 178 78
6.42957925796508789 1.66827178001403809 0.273275166749954224 1 0 103 178 78
6.43567609786987305 1.68101263046264648 0.178708404302597046 1 0 103 178 78
6.45379495620727539 1.68976187705993652 0.169385403394699097 1 0 103 178 78
6.42301464080810547 1.66382479667663574 0.32922092080116272 1 0 103 178 78
6.51787328720092773 1.69900333881378174 0.354019135236740112 1 0 103 178 78
6.49680328369140625 1.68252956867218018 0.388962298631668091 1 0 103 178 78
6.55343151092529297 1.71279442310333252 0.276482641696929932 1 0 103 178 78
6.57583045959472656 1.7246086597442627 0.28915831446647644 1 0 103 178 78
6.58348655700683594 1.71846091747283936 0.32474246621131897 1 0 103 178 78
6.55733728408813477 1.71226763725280762 0.356513381004333496 1 0 103 178 78
6.17108869552612305 2.19441485404968262 1.48512375354766846 1 0 103 178 78
6.15980100631713867 2.22718667984008789 1.50250840187072754 1 0 103 178 78
6.17856979370117188 2.15829110145568848 1.45665204524993896 1 0 103 178 78
6.20094108581542969 2.04182028770446777 1.44515049457550049 1 0 103 178 78
6.15243864059448242 2.24225187301635742 1.47951829433441162 1 0 103 178 78
6.14118719100952148 2.27396154403686523 1.45904076099395752 1 0 103 178 78
6.15160322189331055 2.15355992317199707 1.26451444625854492 1 0 103 178 78
6.15485143661499023 2.15467357635498047 1.21949565410614014 1 0 103 178 78
6.16747474670410156 2.13236188888549805 1.20489740371704102 1 0 103 178 78
6.14873218536376953 2.20871901512145996 1.26213335990905762 1 0 103 178 78
6.15412330627441406 2.18220305442810059 1.25913524627685547 1 0 103 178 78
6.1221003532409668 2.28035354614257812 1.3180992603302002 1 0 103 178 78
6.1556544303894043 2.26606273651123047 1.27523422241210938 1 0 103 178 78
6.11564874649047852 2.29814600944519043 1.2929307222366333 1 0 103 178 78
6.11092376708984375 2.30964326858520508 1.28562831878662109 1 0 103 178 78
6.13964176177978516 2.27380728721618652 1.30141353607177734 1 0 103 178 78
6.13312578201293945 2.30518937110900879 1.29438102245330811 1 0 103 178 78
6.13435602188110352 2.24640679359436035 1.31447470188140869 1 0 103 178 78
6.21160793304443359 2.03636384010314941 1.48213779926300049 1 0 103 178 78
6.21337175369262695 2.00987792015075684 1.47866690158843994 1 0 103 178 78
6.1972193717956543 2.02088212966918945 1.51514959335327148 1 0 103 178 78
6.1547999382019043 2.32305598258972168 1.27605295181274414 1 0 103 178 78
6.15688514709472656 2.18562126159667969 1.31225645542144775 1 0 103 178 78
6.1455388069152832 2.22339510917663574 1.38889741897583008 1 0 103 178 78
6.12770795822143555 2.28304696083068848 1.40266001224517822 1 0 103 178 78
6.11424684524536133 2.31084084510803223 1.34223389625549316 1 0 103 178 78
6.13765048980712891 2.24579143524169922 1.35356295108795166 1 0 103 178 78
6.15288782119750977 2.23088884353637695 1.44000470638275146 1 0 103 178 78
6.13742923736572266 2.32020282745361328 1.26495325565338135 1 0 103 178 78
6.17060947418212891 2.33657526969909668 1.27341806888580322 1 0 103 178 78
6.1137700080871582 2.32313632965087891 1.39995241165161133 1 0 103 178 78
6.12737655639648438 2.31655693054199219 1.46036088466644287 1 0 103 178 78
6.12379884719848633 2.38815736770629883 1.46159613132476807 1 0 103 178 78
6.12307977676391602 2.35370612144470215 1.4657970666885376 1 0 103 178 78
6.19650363922119141 2.08133959770202637 1.4323347806930542 1 0 103 178 78
6.18887472152709961 2.14265751838684082 1.51547157764434814 1 0 103 178 78
6.19573593139648438 2.10678625106811523 1.46840596199035645 1 0 103 178 78
6.14125347137451172 2.22348523139953613 1.2982795238494873 1 0 103 178 78
6.15348386764526367 2.20659852027893066 1.36073493957519531 1 0 103 178 78
6.16948699951171875 2.17229366302490234 1.42708027362823486 1 0 103 178 78
6.15930557250976562 2.19115781784057617 1.38568270206451416 1 0 103 178 78
6.18536520004272461 2.12170624732971191 1.40526199340820312 1 0 103 178 78
6.08520078659057617 2.47652053833007812 1.53978645801544189 1 0 103 178 78
6.19928455352783203 2.16092944145202637 1.68697750568389893 1 0 103 178 78
6.19548559188842773 2.20357584953308105 1.73144924640655518 1 0 103 178 78
6.1877589225769043 2.21471405029296875 1.68911111354827881 1 0 103 178 78
6.18835783004760742 2.22631716728210449 1.74408376216888428 1 0 103 178 78
6.20226764678955078 2.16472148895263672 1.72986412048339844 1 0 103 178 78
6.21535015106201172 2.07530426979064941 1.67941761016845703 1 0 103 178 78
6.19239616394042969 2.04833006858825684 1.74280762672424316 1 0 103 178 78
6.18896389007568359 2.04483890533447266 1.68960845470428467 1 0 103 178 78
6.17674636840820312 2.23832869529724121 1.65786290168762207 1 0 103 178 78
6.16679000854492188 2.28202915191650391 1.67288649082183838 1 0 103 178 78
6.16514062881469727 2.25343513488769531 1.59046554565429688 1 0 103 178 78
6.13054513931274414 2.33987021446228027 1.54502332210540771 1 0 103 178 78
6.13027000427246094 2.36956453323364258 1.57896244525909424 1 0 103 178 78
6.12767601013183594 2.37113833427429199 1.52690219879150391 1 0 103 178 78
6.13972854614257812 2.31691932678222656 1.55410110950469971 1 0 103 178 78
6.12761354446411133 2.44413542747497559 1.72100424766540527 1 0 103 178 78
6.13779640197753906 2.41538166999816895 1.71024119853973389 1 0 103 178 78
6.19592952728271484 2.22113871574401855 1.76489675045013428 1 0 103 178 78
6.18786764144897461 2.26064300537109375 1.75198733806610107 1 0 103 178 78
6.21960639953613281 2.0722804069519043 1.78308141231536865 1 0 103 178 78
6.19092464447021484 2.0401768684387207 1.78729903697967529 1 0 103 178 78
6.15489578247070312 2.25329351425170898 1.5057070255279541 1 0 103 178 78
6.19178199768066406 2.17769408226013184 1.66162657737731934 1 0 103 178 78
6.18704462051391602 2.18750476837158203 1.60656344890594482 1 0 103 178 78
6.17079830169677734 2.20219969749450684 1.54409623146057129 1 0 103 178 78
6.18507099151611328 2.15366840362548828 1.48737263679504395 1 0 103 178 78
