ply
format ascii 1.0
element vertex 598
property float x
property float y
property float z
property uchar red
property uchar green
property uchar blue
property uchar alpha
property uint label
end_header
7.37267541885375977 5.34737920761108398 0.370748609304428101 0 174 126 251 5
7.38047695159912109 5.30843544006347656 0.316466659307479858 0 174 126 251 5
7.39524555206298828 5.28123044967651367 0.40976223349571228 0 174 126 251 5
7.38040542602539062 5.31995916366577148 0.40591093897819519 0 174 126 251 5
7.33304357528686523 5.48546600341796875 0.435901373624801636 0 174 126 251 5
7.35752582550048828 5.3603816032409668 0.106251068413257599 0 174 126 251 5
7.36324596405029297 5.33602333068847656 0.129644095897674561 0 174 126 251 5
7.37127923965454102 5.31842231750488281 0.0981437638401985168 0 174 126 251 5
7.40234661102294922 5.20148897171020508 0.166763529181480408 0 174 126 251 5
7.3779911994934082 5.28389215469360352 0.0673437491059303284 0 174 126 251 5
7.36799526214599609 5.31909370422363281 0.0653373375535011292 0 174 126 251 5
7.33914613723754883 5.42586183547973633 0.134405538439750671 0 174 126 251 5
7.34855079650878906 5.40293788909912109 0.223056331276893616 0 174 126 251 5
7.33944892883300781 5.40529108047485352 0.086342930793762207 0 174 126 251 5
7.32606029510498047 5.44691562652587891 0.0674848109483718872 0 174 126 251 5
7.34184074401855469 5.43921422958374023 0.258294492959976196 0 174 126 251 5
7.33165645599365234 5.45948696136474609 0.303846210241317749 0 174 126 251 5
7.42348003387451172 5.21536016464233398 0.576138794422149658 0 174 126 251 5
7.41272544860839844 5.21043252944946289 0.468706876039505005 0 174 126 251 5
7.39504384994506836 5.29336977005004883 0.445446938276290894 0 174 126 251 5
7.38503694534301758 5.32458829879760742 0.486434519290924072 0 174 126 251 5
7.39041805267333984 5.31204700469970703 0.519927680492401123 0 174 126 251 5
7.40496015548706055 5.28064918518066406 0.506498217582702637 0 174 126 251 5
7.39226055145263672 5.31738376617431641 0.551678955554962158 0 174 126 251 5
7.40998935699462891 5.22226428985595703 0.388409584760665894 0 174 126 251 5
7.39932441711425781 5.27566432952880859 0.349084556102752686 0 174 126 251 5
7.41125965118408203 5.20539951324462891 0.380450159311294556 0 174 126 251 5
7.40427970886230469 5.23218727111816406 0.333939015865325928 0 174 126 251 5
7.40626621246337891 5.20499992370605469 0.279999971389770508 0 174 126 251 5
7.40394306182861328 5.20631599426269531 0.229496374726295471 0 174 126 251 5
7.39479207992553711 5.27208995819091797 0.297921597957611084 0 174 126 251 5
7.35643625259399414 5.36201810836791992 0.151824697852134705 0 174 126 251 5
7.35094451904296875 5.39127159118652344 0.183117866516113281 0 174 126 251 5
7.34266996383666992 5.38244104385375977 0.0616289712488651276 0 174 126 251 5
7.35479497909545898 5.35465669631958008 0.0572751834988594055 0 174 126 251 5
7.38103532791137695 5.28808879852294922 0.162633344531059265 0 174 126 251 5
7.36395931243896484 5.34997224807739258 0.195779740810394287 0 174 126 251 5
7.37393760681152344 5.31970787048339844 0.22999998927116394 0 174 126 251 5
7.32309865951538086 5.48599004745483398 0.340596884489059448 0 174 126 251 5
7.34983015060424805 5.43972349166870117 0.400278151035308838 0 174 126 251 5
7.32940387725830078 5.48233652114868164 0.366433680057525635 0 174 126 251 5
7.34967136383056641 5.44077730178833008 0.353275090456008911 0 174 126 251 5
7.36110973358154297 5.38517189025878906 0.266054600477218628 0 174 126 251 5
7.3118128776550293 5.51876735687255859 0.184021621942520142 0 174 126 251 5
7.30621194839477539 5.50834798812866211 0.0917031466960906982 0 174 126 251 5
7.32833385467529297 5.44928884506225586 0.114911288022994995 0 174 126 251 5
7.32666206359863281 5.4580836296081543 0.156733915209770203 0 174 126 251 5
7.35691690444946289 5.43716716766357422 0.472818493843078613 0 174 126 251 5
7.36212301254272461 5.39305019378662109 0.465099096298217773 0 174 126 251 5
7.38892126083374023 5.29456996917724609 0.267941832542419434 0 174 126 251 5
7.37177848815917969 5.33957719802856445 0.305683165788650513 0 174 126 251 5
7.3786005973815918 5.3218388557434082 0.258759170770645142 0 174 126 251 5
7.4024658203125 5.25546646118164062 0.418954193592071533 0 174 126 251 5
7.40951776504516602 5.23206281661987305 0.477803140878677368 0 174 126 251 5
7.35672426223754883 5.3968043327331543 0.349189251661300659 0 174 126 251 5
7.35312461853027344 5.39049482345581055 0.30863538384437561 0 174 126 251 5
7.34222316741943359 5.43623781204223633 0.307067334651947021 0 174 126 251 5
7.3538517951965332 5.443695068359375 0.516363441944122314 0 174 126 251 5
7.33737897872924805 5.48905229568481445 0.524490296840667725 0 174 126 251 5
7.33194494247436523 5.46010255813598633 0.225236177444458008 0 174 126 251 5
7.32259941101074219 5.48555231094360352 0.236942633986473083 0 174 126 251 5
7.32892942428588867 5.44398593902587891 0.189489230513572693 0 174 126 251 5
7.31028842926025391 5.51402378082275391 0.216972514986991882 0 174 126 251 5
7.40465593338012695 5.21383523941040039 0.191195249557495117 0 174 126 251 5
7.38857507705688477 5.26306819915771484 0.222204864025115967 0 174 126 251 5
7.37681484222412109 5.28720903396606445 0.132256999611854553 0 174 126 251 5
7.39568614959716797 5.2169337272644043 0.0674585998058319092 0 174 126 251 5
7.39169979095458984 5.24445152282714844 0.0942338109016418457 0 174 126 251 5
7.39440441131591797 5.23897647857666016 0.158402472734451294 0 174 126 251 5
7.40304040908813477 5.20765447616577148 0.122887715697288513 0 174 126 251 5
7.37549543380737305 5.3463287353515625 0.434602916240692139 0 174 126 251 5
7.35095310211181641 5.44173240661621094 0.435818105936050415 0 174 126 251 5
7.36441183090209961 5.37766075134277344 0.407079935073852539 0 174 126 251 5
7.40033864974975586 5.33914709091186523 0.799426555633544922 0 174 126 251 5
7.41019773483276367 5.30024147033691406 0.883341968059539795 0 174 126 251 5
7.38791084289550781 5.36435413360595703 0.856615662574768066 0 174 126 251 5
7.39524126052856445 5.34676647186279297 0.840189695358276367 0 174 126 251 5
7.35601711273193359 5.45334911346435547 0.560543358325958252 0 174 126 251 5
7.36104679107666016 5.46387672424316406 0.931874990463256836 0 174 126 251 5
7.3737788200378418 5.41736030578613281 0.98348081111907959 0 174 126 251 5
7.36152935028076172 5.44064664840698242 0.666486024856567383 0 174 126 251 5
7.36231803894042969 5.41251611709594727 0.643308401107788086 0 174 126 251 5
7.37357044219970703 5.36377620697021484 0.63387221097946167 0 174 126 251 5
7.41902923583984375 5.27299070358276367 0.930988550186157227 0 174 126 251 5
7.40875577926635742 5.31139087677001953 0.919582724571228027 0 174 126 251 5
7.35687780380249023 5.47251367568969727 0.887163221836090088 0 174 126 251 5
7.36055994033813477 5.4558711051940918 0.832066595554351807 0 174 126 251 5
7.43020534515380859 5.24976348876953125 0.959567070007324219 0 174 126 251 5
7.43345546722412109 5.22919845581054688 0.931798279285430908 0 174 126 251 5
7.38001823425292969 5.34581375122070312 0.58359980583190918 0 174 126 251 5
7.39058780670166016 5.30783224105834961 0.595969557762145996 0 174 126 251 5
7.40096569061279297 5.28340244293212891 0.596086263656616211 0 174 126 251 5
7.40543365478515625 5.2882533073425293 0.623662173748016357 0 174 126 251 5
7.42471504211425781 5.33119916915893555 1.38758981227874756 0 174 126 251 5
7.36722707748413086 5.44817829132080078 0.987334251403808594 0 174 126 251 5
7.36035966873168945 5.48026466369628906 0.997736573219299316 0 174 126 251 5
7.34775114059448242 5.50568771362304688 0.961205840110778809 0 174 126 251 5
7.37189388275146484 5.47365570068359375 1.19647860527038574 0 174 126 251 5
7.38272714614868164 5.45795106887817383 1.25707697868347168 0 174 126 251 5
7.35555696487426758 5.51284074783325195 1.24414932727813721 0 174 126 251 5
7.38934659957885742 5.41869974136352539 1.25191617012023926 0 174 126 251 5
7.38133096694946289 5.41790199279785156 1.07215678691864014 0 174 126 251 5
7.3708500862121582 5.4658207893371582 1.078025221824646 0 174 126 251 5
7.33817100524902344 5.48841190338134766 0.601945579051971436 0 174 126 251 5
7.34027910232543945 5.48593568801879883 0.637488305568695068 0 174 126 251 5
7.39324665069580078 5.42512989044189453 1.42731940746307373 0 174 126 251 5
7.38241195678710938 5.47438287734985352 1.41772794723510742 0 174 126 251 5
7.36824989318847656 5.49976015090942383 1.38779592514038086 0 174 126 251 5
7.38341856002807617 5.45657444000244141 1.3705146312713623 0 174 126 251 5
7.41495275497436523 5.2503514289855957 0.641686499118804932 0 174 126 251 5
7.41723537445068359 5.23624324798583984 0.676258742809295654 0 174 126 251 5
7.42468070983886719 5.21926212310791016 0.650774717330932617 0 174 126 251 5
7.42580127716064453 5.22170162200927734 0.707472741603851318 0 174 126 251 5
7.44046258926391602 5.26543188095092773 1.34397363662719727 0 174 126 251 5
7.44654130935668945 5.2398681640625 1.33438730239868164 0 174 126 251 5
7.4451751708984375 5.24015998840332031 1.28805005550384521 0 174 126 251 5
7.40492153167724609 5.33307218551635742 1.04998302459716797 0 174 126 251 5
7.42784547805786133 5.30105781555175781 1.10065579414367676 0 174 126 251 5
7.42261362075805664 5.2904353141784668 1.05496859550476074 0 174 126 251 5
7.40869712829589844 5.340972900390625 1.08558166027069092 0 174 126 251 5
7.43660831451416016 5.26069450378417969 1.19749999046325684 0 174 126 251 5
7.43093585968017578 5.28339338302612305 1.14253330230712891 0 174 126 251 5
7.36187648773193359 5.4045562744140625 0.53135448694229126 0 174 126 251 5
7.36668157577514648 5.39684343338012695 0.583644747734069824 0 174 126 251 5
7.35998821258544922 5.44184494018554688 0.604957222938537598 0 174 126 251 5
7.43670892715454102 5.30358028411865234 1.44471144676208496 0 174 126 251 5
7.38799619674682617 5.32471990585327148 0.62554633617401123 0 174 126 251 5
7.40921926498413086 5.28039979934692383 0.663936913013458252 0 174 126 251 5
7.39275121688842773 5.31457614898681641 0.654635846614837646 0 174 126 251 5
7.39807367324829102 5.31861019134521484 0.705879330635070801 0 174 126 251 5
7.40139579772949219 5.38282871246337891 1.32102119922637939 0 174 126 251 5
7.38707399368286133 5.41301107406616211 1.29649031162261963 0 174 126 251 5
7.39932632446289062 5.34463882446289062 0.984632790088653564 0 174 126 251 5
7.4296870231628418 5.25299072265625 0.996491670608520508 0 174 126 251 5
7.42215156555175781 5.29923820495605469 1.01244485378265381 0 174 126 251 5
7.4110713005065918 5.32739496231079102 1.01016485691070557 0 174 126 251 5
7.38642501831054688 5.45629787445068359 1.43943023681640625 0 174 126 251 5
7.38545751571655273 5.4627528190612793 1.49559104442596436 0 174 126 251 5
7.37156438827514648 5.49306869506835938 1.46010696887969971 0 174 126 251 5
7.36062383651733398 5.51367282867431641 1.45310127735137939 0 174 126 251 5
7.37978839874267578 5.43298101425170898 1.11515092849731445 0 174 126 251 5
7.3887782096862793 5.39379405975341797 1.15939021110534668 0 174 126 251 5
7.38784027099609375 5.3843998908996582 0.810567319393157959 0 174 126 251 5
7.36076164245605469 5.45516872406005859 0.706429719924926758 0 174 126 251 5
7.40548276901245117 5.34022283554077148 1.12859177589416504 0 174 126 251 5
7.40994596481323242 5.33656597137451172 1.15082108974456787 0 174 126 251 5
7.42853975296020508 5.29743289947509766 1.1910327672958374 0 174 126 251 5
7.4366602897644043 5.30768060684204102 1.40227210521697998 0 174 126 251 5
7.43816995620727539 5.29706287384033203 1.36723077297210693 0 174 126 251 5
7.44382810592651367 5.23935413360595703 1.21767652034759521 0 174 126 251 5
7.44212055206298828 5.24072933197021484 1.25070226192474365 0 174 126 251 5
7.41539812088012695 5.36305332183837891 1.49659991264343262 0 174 126 251 5
7.41930866241455078 5.33578824996948242 1.44088459014892578 0 174 126 251 5
7.42155551910400391 5.26416969299316406 0.815257668495178223 0 174 126 251 5
7.42866897583007812 5.24797439575195312 0.873494327068328857 0 174 126 251 5
7.38109016418457031 5.36301469802856445 0.680128693580627441 0 174 126 251 5
7.37578630447387695 5.39075803756713867 0.775745272636413574 0 174 126 251 5
7.36612272262573242 5.41629457473754883 0.703812658786773682 0 174 126 251 5
7.41688156127929688 5.27779912948608398 0.707845151424407959 0 174 126 251 5
7.41027402877807617 5.28922653198242188 0.759237825870513916 0 174 126 251 5
7.34662961959838867 5.48632383346557617 0.816628873348236084 0 174 126 251 5
7.39823770523071289 5.37874984741210938 1.19624996185302734 0 174 126 251 5
7.3822779655456543 5.42887496948242188 1.20251309871673584 0 174 126 251 5
7.39969730377197266 5.36996269226074219 1.02198672294616699 0 174 126 251 5
7.39790868759155273 5.34377622604370117 0.964298725128173828 0 174 126 251 5
7.38045310974121094 5.44146108627319336 1.03087198734283447 0 174 126 251 5
7.38718080520629883 5.38560581207275391 0.984945774078369141 0 174 126 251 5
7.37801647186279297 5.45984601974487305 1.1618884801864624 0 174 126 251 5
7.35819721221923828 5.50155878067016602 1.12815499305725098 0 174 126 251 5
7.37573957443237305 5.46548652648925781 1.12433111667633057 0 174 126 251 5
7.35623025894165039 5.49756860733032227 1.09006702899932861 0 174 126 251 5
7.38838911056518555 5.34219551086425781 0.763094246387481689 0 174 126 251 5
7.41709566116333008 5.29102706909179688 0.792302966117858887 0 174 126 251 5
7.4370269775390625 5.2320404052734375 1.01517820358276367 0 174 126 251 5
7.38970088958740234 5.39346694946289062 1.06314694881439209 0 174 126 251 5
7.39703512191772461 5.37132453918457031 1.13389670848846436 0 174 126 251 5
7.45221757888793945 5.23266983032226562 1.41256558895111084 0 174 126 251 5
7.41531276702880859 5.22592687606811523 0.607526302337646484 0 174 126 251 5
7.40897369384765625 5.27401876449584961 0.554185211658477783 0 174 126 251 5
7.3946070671081543 5.42518854141235352 1.49330735206604004 0 174 126 251 5
7.4089813232421875 5.38322734832763672 1.45085501670837402 0 174 126 251 5
7.37339305877685547 5.42517709732055664 0.883343338966369629 0 174 126 251 5
7.39265060424804688 5.35942649841308594 0.929393947124481201 0 174 126 251 5
7.3978266716003418 5.34377670288085938 0.89250713586807251 0 174 126 251 5
7.3762812614440918 5.40999984741210938 0.917500019073486328 0 174 126 251 5
7.3785700798034668 5.45660781860351562 1.30503201484680176 0 174 126 251 5
7.38114070892333984 5.46833610534667969 1.34235107898712158 0 174 126 251 5
7.41428565979003906 5.33246135711669922 1.23136138916015625 0 174 126 251 5
7.40556955337524414 5.36984109878540039 1.25604045391082764 0 174 126 251 5
7.43534374237060547 5.28920555114746094 1.27562499046325684 0 174 126 251 5
7.34247112274169922 5.51767826080322266 0.856124758720397949 0 174 126 251 5
7.409423828125 5.35054206848144531 1.29870009422302246 0 174 126 251 5
7.43484973907470703 5.30233144760131836 1.31583130359649658 0 174 126 251 5
7.40881872177124023 5.37044763565063477 1.41649580001831055 0 174 126 251 5
7.38918495178222656 5.41901063919067383 1.34658181667327881 0 174 126 251 5
7.39799642562866211 5.40160369873046875 1.3842005729675293 0 174 126 251 5
7.4499363899230957 5.24290037155151367 1.44774341583251953 0 174 126 251 5
7.45595836639404297 5.23968601226806641 1.48915362358093262 0 174 126 251 5
7.44685745239257812 5.26706504821777344 1.52441203594207764 0 174 126 251 5
7.34045219421386719 5.48311376571655273 0.66344141960144043 0 174 126 251 5
7.36692047119140625 5.44681406021118164 0.800925254821777344 0 174 126 251 5
7.36298131942749023 5.4575800895690918 0.762730658054351807 0 174 126 251 5
7.36642837524414062 5.44523715972900391 0.759850680828094482 0 174 126 251 5
7.43379402160644531 5.25022506713867188 1.08289873600006104 0 174 126 251 5
7.44488906860351562 5.30821132659912109 1.67656064033508301 0 174 126 251 5
7.45770692825317383 5.27362871170043945 1.76523339748382568 0 174 126 251 5
7.45106744766235352 5.30945491790771484 1.7609180212020874 0 174 126 251 5
7.45270538330078125 5.27063655853271484 1.69924914836883545 0 174 126 251 5
7.43999290466308594 5.33033418655395508 1.97490036487579346 0 174 126 251 5
7.42990636825561523 5.38762521743774414 1.9645383358001709 0 174 126 251 5
7.41547250747680664 5.41682672500610352 1.9094618558883667 0 174 126 251 5
7.4197535514831543 5.4012451171875 1.97551476955413818 0 174 126 251 5
7.42865753173828125 5.36517763137817383 1.8009566068649292 0 174 126 251 5
7.41900968551635742 5.40040254592895508 1.77292251586914062 0 174 126 251 5
7.40143442153930664 5.4166417121887207 1.60872399806976318 0 174 126 251 5
7.41336154937744141 5.37959671020507812 1.63076722621917725 0 174 126 251 5
7.38542079925537109 5.47814226150512695 1.55349063873291016 0 174 126 251 5
7.39675045013427734 5.44978809356689453 1.69371342658996582 0 174 126 251 5
7.39381313323974609 5.48637676239013672 1.75225162506103516 0 174 126 251 5
7.44178676605224609 5.2982029914855957 1.48777270317077637 0 174 126 251 5
7.44323110580444336 5.31059074401855469 1.57014572620391846 0 174 126 251 5
7.44884681701660156 5.26865530014038086 1.56650209426879883 0 174 126 251 5
7.43643712997436523 5.35369253158569336 1.84098947048187256 0 174 126 251 5
7.42268848419189453 5.40564918518066406 1.8745877742767334 0 174 126 251 5
7.47083473205566406 5.24620866775512695 1.90504777431488037 0 174 126 251 5
7.46619701385498047 5.24289226531982422 1.87230110168457031 0 174 126 251 5
7.41037750244140625 5.44819116592407227 1.94962596893310547 0 174 126 251 5
7.41218328475952148 5.43796110153198242 1.96438968181610107 0 174 126 251 5
7.38901948928833008 5.50410795211791992 1.92297744750976562 0 174 126 251 5
7.40149784088134766 5.45546436309814453 1.77730381488800049 0 174 126 251 5
7.40567684173583984 5.43660211563110352 1.80068671703338623 0 174 126 251 5
7.39336109161376953 5.48297405242919922 1.806069016456604 0 174 126 251 5
7.46196842193603516 5.24522542953491211 1.65742361545562744 0 174 126 251 5
7.42425155639648438 5.35099411010742188 1.66106510162353516 0 174 126 251 5
7.43934202194213867 5.36558341979980469 1.94482016563415527 0 174 126 251 5
7.45814943313598633 5.23413991928100586 1.53366696834564209 0 174 126 251 5
7.43599081039428711 5.33801364898681641 1.76704061031341553 0 174 126 251 5
7.46461105346679688 5.24246788024902344 1.72535812854766846 0 174 126 251 5
7.46092987060546875 5.2417449951171875 1.69772720336914062 0 174 126 251 5
7.41683530807495117 5.38833189010620117 1.69436144828796387 0 174 126 251 5
7.40082216262817383 5.43133115768432617 1.73249971866607666 0 174 126 251 5
7.42463541030883789 5.35778713226318359 1.74055290222167969 0 174 126 251 5
7.44854927062988281 5.32887983322143555 1.89930450916290283 0 174 126 251 5
7.44862556457519531 5.32468080520629883 1.95798099040985107 0 174 126 251 5
7.45098304748535156 5.32017755508422852 1.84208536148071289 0 174 126 251 5
7.45766782760620117 5.2837977409362793 1.87073707580566406 0 174 126 251 5
7.42571353912353516 5.35159683227539062 1.59904122352600098 0 174 126 251 5
7.43649148941040039 5.3134312629699707 1.53241455554962158 0 174 126 251 5
7.39264488220214844 5.4373478889465332 1.53155159950256348 0 174 126 251 5
7.44656753540039062 5.31222152709960938 1.70695185661315918 0 174 126 251 5
7.39548110961914062 5.42985057830810547 1.55952060222625732 0 174 126 251 5
7.41138839721679688 5.38152360916137695 1.58203959465026855 0 174 126 251 5
7.4160008430480957 5.36319065093994141 1.55382955074310303 0 174 126 251 5
7.39542770385742188 5.45079660415649414 1.6538548469543457 0 174 126 251 5
7.39035177230834961 5.47694301605224609 1.68063747882843018 0 174 126 251 5
7.46311283111572266 5.24628400802612305 1.78650498390197754 0 174 126 251 5
7.46812057495117188 5.24645042419433594 1.82963168621063232 0 174 126 251 5
7.45746421813964844 5.25511360168457031 1.60730254650115967 0 174 126 251 5
7.4420013427734375 5.31011486053466797 1.60305869579315186 0 174 126 251 5
7.4511113166809082 5.28064775466918945 1.65791678428649902 0 174 126 251 5
7.44634246826171875 5.312469482421875 1.63437843322753906 0 174 126 251 5
7.40563392639160156 5.45487308502197266 1.86510980129241943 0 174 126 251 5
7.38702058792114258 5.50220775604248047 1.8959125280380249 0 174 126 251 5
7.39922618865966797 5.48037242889404297 1.85162580013275146 0 174 126 251 5
7.47198247909545898 5.24683666229248047 1.97030544281005859 0 174 126 251 5
7.46069192886352539 5.29030036926269531 1.97105228900909424 0 174 126 251 5
7.2353672981262207 5.71963882446289062 0.0648593902587890625 0 174 126 251 5
7.25745582580566406 5.66033792495727539 0.0639370232820510864 0 174 126 251 5
7.24762582778930664 5.70723628997802734 0.0798000022768974304 0 174 126 251 5
7.26500034332275391 5.68567705154418945 0.419978320598602295 0 174 126 251 5
7.25566387176513672 5.7344212532043457 0.4196014404296875 0 174 126 251 5
7.27281856536865234 5.6210789680480957 0.0760716795921325684 0 174 126 251 5
7.23984909057617188 5.75802326202392578 0.341985404491424561 0 174 126 251 5
7.2277984619140625 5.79184770584106445 0.347998529672622681 0 174 126 251 5
7.21664714813232422 5.81721353530883789 0.3514118492603302 0 174 126 251 5
7.23581933975219727 5.76987266540527344 0.379802018404006958 0 174 126 251 5
7.26276922225952148 5.66828250885009766 0.192659080028533936 0 174 126 251 5
7.28200292587280273 5.61231184005737305 0.235183164477348328 0 174 126 251 5
7.22018766403198242 5.79712152481079102 0.166451022028923035 0 174 126 251 5
7.2163081169128418 5.81177473068237305 0.204045876860618591 0 174 126 251 5
7.30381011962890625 5.51904487609863281 0.0650183707475662231 0 174 126 251 5
7.28060722351074219 5.58860397338867188 0.060214310884475708 0 174 126 251 5
7.31890964508056641 5.52773237228393555 0.40621379017829895 0 174 126 251 5
7.22299814224243164 5.76069879531860352 0.061554834246635437 0 174 126 251 5
7.27099275588989258 5.61177682876586914 0.0628293976187705994 0 174 126 251 5
7.21999788284301758 5.8144526481628418 0.239100828766822815 0 174 126 251 5
7.2366337776184082 5.76461696624755859 0.248555392026901245 0 174 126 251 5
7.22106361389160156 5.81308984756469727 0.295626610517501831 0 174 126 251 5
7.23409461975097656 5.7661137580871582 0.297780811786651611 0 174 126 251 5
7.21119594573974609 5.81299209594726562 0.125943779945373535 0 174 126 251 5
7.20606040954589844 5.81837892532348633 0.0759350582957267761 0 174 126 251 5
7.23684024810791016 5.73317146301269531 0.0788830593228340149 0 174 126 251 5
7.23037290573120117 5.74561595916748047 0.137009784579277039 0 174 126 251 5
7.22081136703491211 5.79608774185180664 0.0791774466633796692 0 174 126 251 5
7.20998382568359375 5.81957340240478516 0.165020138025283813 0 174 126 251 5
7.27202796936035156 5.62713718414306641 0.149120211601257324 0 174 126 251 5
7.24676752090454102 5.75901508331298828 0.518805861473083496 0 174 126 251 5
7.2438507080078125 5.77432537078857422 0.553957045078277588 0 174 126 251 5
7.22902441024780273 5.82098388671875 0.485148519277572632 0 174 126 251 5
7.2234649658203125 5.82373332977294922 0.538575172424316406 0 174 126 251 5
7.31286954879760742 5.56149959564208984 0.399897098541259766 0 174 126 251 5
7.31252670288085938 5.575439453125 0.426951050758361816 0 174 126 251 5
7.32158899307250977 5.51584815979003906 0.46402326226234436 0 174 126 251 5
7.29774570465087891 5.59668970108032227 0.270939528942108154 0 174 126 251 5
7.28027629852294922 5.6360316276550293 0.279284089803695679 0 174 126 251 5
7.27521133422851562 5.65079975128173828 0.305333346128463745 0 174 126 251 5
7.28593540191650391 5.60388565063476562 0.336354851722717285 0 174 126 251 5
7.28359270095825195 5.61581611633300781 0.386475622653961182 0 174 126 251 5
7.25299692153930664 5.7254796028137207 0.264655560255050659 0 174 126 251 5
7.25207901000976562 5.72947025299072266 0.288957506418228149 0 174 126 251 5
7.22295808792114258 5.81486940383911133 0.38558158278465271 0 174 126 251 5
7.21925544738769531 5.82659292221069336 0.415217965841293335 0 174 126 251 5
7.23625850677490234 5.78646039962768555 0.446043282747268677 0 174 126 251 5
7.24453306198120117 5.77659702301025391 0.478561580181121826 0 174 126 251 5
7.26771068572998047 5.66269254684448242 0.330664724111557007 0 174 126 251 5
7.25067138671875 5.73173427581787109 0.37437787652015686 0 174 126 251 5
7.2538304328918457 5.73230504989624023 0.327269792556762695 0 174 126 251 5
7.29366350173950195 5.57839298248291016 0.189052984118461609 0 174 126 251 5
7.29677867889404297 5.55327415466308594 0.225540697574615479 0 174 126 251 5
7.27030754089355469 5.69424247741699219 0.468458831310272217 0 174 126 251 5
7.29369926452636719 5.55869960784912109 0.114374995231628418 0 174 126 251 5
7.30356502532958984 5.53002500534057617 0.160426393151283264 0 174 126 251 5
7.23854446411132812 5.74373674392700195 0.182438254356384277 0 174 126 251 5
7.25822019577026367 5.66636419296264648 0.131788492202758789 0 174 126 251 5
7.23557233810424805 5.75539112091064453 0.209938883781433105 0 174 126 251 5
7.26443719863891602 5.66701745986938477 0.236516982316970825 0 174 126 251 5
7.27348995208740234 5.6736903190612793 0.5265350341796875 0 174 126 251 5
7.25951051712036133 5.72701406478881836 0.514632642269134521 0 174 126 251 5
7.26459169387817383 5.73720026016235352 0.47337871789932251 0 174 126 251 5
7.25984764099121094 5.73488950729370117 0.539571166038513184 0 174 126 251 5
7.29386043548583984 5.61642742156982422 0.533504188060760498 0 174 126 251 5
7.2790522575378418 5.66209030151367188 0.488141387701034546 0 174 126 251 5
7.30777454376220703 5.58230257034301758 0.47793203592300415 0 174 126 251 5
7.31431007385253906 5.57600641250610352 0.508926272392272949 0 174 126 251 5
7.30514049530029297 5.55618000030517578 0.327521741390228271 0 174 126 251 5
7.30957746505737305 5.53081560134887695 0.365759134292602539 0 174 126 251 5
7.3034358024597168 5.56978893280029297 0.368863970041275024 0 174 126 251 5
7.29575872421264648 5.58601665496826172 0.301290690898895264 0 174 126 251 5
7.3034052848815918 5.57400417327880859 0.26335376501083374 0 174 126 251 5
7.31167984008789062 5.52577495574951172 0.260351061820983887 0 174 126 251 5
7.26722526550292969 5.67878961563110352 0.274213641881942749 0 174 126 251 5
7.27433347702026367 5.65159702301025391 0.390024155378341675 0 174 126 251 5
7.29352903366088867 5.61648464202880859 0.428584307432174683 0 174 126 251 5
7.28285741806030273 5.64737319946289062 0.446604698896408081 0 174 126 251 5
7.29236745834350586 5.61352348327636719 0.461273670196533203 0 174 126 251 5
7.32435750961303711 5.52596807479858398 0.506004571914672852 0 174 126 251 5
7.31555271148681641 5.56583786010742188 0.545316994190216064 0 174 126 251 5
7.36250400543212891 5.52184772491455078 1.42585551738739014 0 174 126 251 5
7.35265493392944336 5.55046987533569336 1.48915088176727295 0 174 126 251 5
7.31597280502319336 5.58145809173583984 0.602351009845733643 0 174 126 251 5
7.32536506652832031 5.52915048599243164 0.589280486106872559 0 174 126 251 5
7.30300283432006836 5.67038679122924805 0.994800269603729248 0 174 126 251 5
7.28902769088745117 5.72222328186035156 1.01505601406097412 0 174 126 251 5
7.25652408599853516 5.77191448211669922 0.863920152187347412 0 174 126 251 5
7.23626708984375 5.83399295806884766 0.847757577896118164 0 174 126 251 5
7.28594446182250977 5.75395536422729492 1.29148483276367188 0 174 126 251 5
7.29445505142211914 5.72285318374633789 1.32443487644195557 0 174 126 251 5
7.28601694107055664 5.77280521392822266 1.34533607959747314 0 174 126 251 5
7.31411647796630859 5.65112590789794922 1.3507082462310791 0 174 126 251 5
7.32599020004272461 5.6425018310546875 1.40852451324462891 0 174 126 251 5
7.33777666091918945 5.6152033805847168 1.41199660301208496 0 174 126 251 5
7.32071781158447266 5.6511845588684082 1.46657383441925049 0 174 126 251 5
7.34584712982177734 5.58999872207641602 1.45214378833770752 0 174 126 251 5
7.33571052551269531 5.61356115341186523 1.47923672199249268 0 174 126 251 5
7.3173365592956543 5.66072797775268555 1.50227093696594238 0 174 126 251 5
7.30013847351074219 5.62019586563110352 0.599126875400543213 0 174 126 251 5
7.27936029434204102 5.6760406494140625 0.586841344833374023 0 174 126 251 5
7.30291652679443359 5.61335659027099609 0.664339125156402588 0 174 126 251 5
7.2878727912902832 5.65939712524414062 0.636670589447021484 0 174 126 251 5
7.2953495979309082 5.63093137741088867 0.715524673461914062 0 174 126 251 5
7.28217315673828125 5.68272876739501953 0.727083683013916016 0 174 126 251 5
7.2627263069152832 5.7518458366394043 0.685031592845916748 0 174 126 251 5
7.26696062088012695 5.74349355697631836 0.650158524513244629 0 174 126 251 5
7.27667665481567383 5.70087623596191406 0.651595234870910645 0 174 126 251 5
7.2595672607421875 5.82051563262939453 1.2806321382522583 0 174 126 251 5
7.27244281768798828 5.80007553100585938 1.34183096885681152 0 174 126 251 5
7.26513147354125977 5.80569887161254883 1.31650996208190918 0 174 126 251 5
7.35907363891601562 5.52956008911132812 1.39723730087280273 0 174 126 251 5
7.269439697265625 5.7869572639465332 1.15186071395874023 0 174 126 251 5
7.28187656402587891 5.75968360900878906 1.22371828556060791 0 174 126 251 5
7.27304697036743164 5.70378303527832031 0.686610162258148193 0 174 126 251 5
7.24348306655883789 5.84712743759155273 1.2468421459197998 0 174 126 251 5
7.33442163467407227 5.58946752548217773 1.15436184406280518 0 174 126 251 5
7.34218645095825195 5.54085588455200195 1.1622854471206665 0 174 126 251 5
7.34398460388183594 5.55097627639770508 1.2036365270614624 0 174 126 251 5
7.3034210205078125 5.7199554443359375 1.4871748685836792 0 174 126 251 5
7.29253673553466797 5.76617622375488281 1.48127734661102295 0 174 126 251 5
7.30690717697143555 5.69828319549560547 1.44446516036987305 0 174 126 251 5
7.33258724212646484 5.53241729736328125 0.820579111576080322 0 174 126 251 5
7.32423734664916992 5.56956386566162109 0.849240303039550781 0 174 126 251 5
7.32297515869140625 5.58021879196166992 0.76662367582321167 0 174 126 251 5
7.33651208877563477 5.5284428596496582 0.778386592864990234 0 174 126 251 5
7.32771110534667969 5.54935121536254883 0.7553672194480896 0 174 126 251 5
7.34478998184204102 5.49018192291259766 0.710005283355712891 0 174 126 251 5
7.3251042366027832 5.59364700317382812 0.803760826587677002 0 174 126 251 5
7.2372136116027832 5.8366093635559082 0.818848788738250732 0 174 126 251 5
7.27888059616088867 5.726837158203125 0.827483594417572021 0 174 126 251 5
7.23672103881835938 5.82173252105712891 0.695674598217010498 0 174 126 251 5
7.23748874664306641 5.82021665573120117 0.724751114845275879 0 174 126 251 5
7.26709461212158203 5.74491453170776367 0.742865025997161865 0 174 126 251 5
7.25344562530517578 5.77509212493896484 0.733155786991119385 0 174 126 251 5
7.25305938720703125 5.79214763641357422 0.801007568836212158 0 174 126 251 5
7.23481369018554688 5.83607101440429688 0.782974958419799805 0 174 126 251 5
7.29502248764038086 5.70456266403198242 1.18447303771972656 0 174 126 251 5
7.29050350189208984 5.71484804153442383 1.10492098331451416 0 174 126 251 5
7.28946065902709961 5.7200927734375 1.14171230792999268 0 174 126 251 5
7.26695632934570312 5.7822880744934082 1.05565428733825684 0 174 126 251 5
7.26341581344604492 5.77581548690795898 0.967777669429779053 0 174 126 251 5
7.28161048889160156 5.73313283920288086 0.996417582035064697 0 174 126 251 5
7.24857044219970703 5.792327880859375 0.95407402515411377 0 174 126 251 5
7.26569032669067383 5.79483604431152344 1.24474763870239258 0 174 126 251 5
7.25134420394897461 5.83363866806030273 1.23602461814880371 0 174 126 251 5
7.28872346878051758 5.68697166442871094 0.891951978206634521 0 174 126 251 5
7.29827451705932617 5.66554689407348633 0.967709183692932129 0 174 126 251 5
7.27638959884643555 5.75974082946777344 1.04100191593170166 0 174 126 251 5
7.2476043701171875 5.83044052124023438 1.02069246768951416 0 174 126 251 5
7.25397157669067383 5.80739450454711914 1.07384312152862549 0 174 126 251 5
7.28450393676757812 5.75482749938964844 1.08956634998321533 0 174 126 251 5
7.30584573745727539 5.6717681884765625 1.23221790790557861 0 174 126 251 5
7.28815937042236328 5.72730731964111328 1.2378162145614624 0 174 126 251 5
7.29726219177246094 5.70033073425292969 1.27506482601165771 0 174 126 251 5
7.24628114700317383 5.85539913177490234 1.34878087043762207 0 174 126 251 5
7.35724544525146484 5.50225687026977539 1.17150378227233887 0 174 126 251 5
7.25470256805419922 5.84914398193359375 1.45811343193054199 0 174 126 251 5
7.28510379791259766 5.76014280319213867 1.18342339992523193 0 174 126 251 5
7.28309726715087891 5.75821018218994141 1.13772988319396973 0 174 126 251 5
7.22665214538574219 5.83282136917114258 0.622471749782562256 0 174 126 251 5
7.31829452514648438 5.61537265777587891 0.99439692497253418 0 174 126 251 5
7.33422946929931641 5.55117082595825195 0.945984482765197754 0 174 126 251 5
7.3427729606628418 5.52332496643066406 0.923281192779541016 0 174 126 251 5
7.28724336624145508 5.7528986930847168 1.37627971172332764 0 174 126 251 5
7.29657649993896484 5.73243284225463867 1.44275391101837158 0 174 126 251 5
7.29412031173706055 5.72098684310913086 1.37309396266937256 0 174 126 251 5
7.29129171371459961 5.75979804992675781 1.41479992866516113 0 174 126 251 5
7.30875205993652344 5.68681859970092773 1.39174425601959229 0 174 126 251 5
7.31807136535644531 5.62837934494018555 1.10505032539367676 0 174 126 251 5
7.31241464614868164 5.63901853561401367 1.0699838399887085 0 174 126 251 5
7.33098077774047852 5.59955883026123047 1.09936988353729248 0 174 126 251 5
7.30477476119995117 5.62064886093139648 0.74387812614440918 0 174 126 251 5
7.30441761016845703 5.62424707412719727 0.773260235786437988 0 174 126 251 5
7.31190919876098633 5.65598154067993164 1.17427313327789307 0 174 126 251 5
7.30324935913085938 5.67289924621582031 1.13289272785186768 0 174 126 251 5
7.31792736053466797 5.62563371658325195 1.14998269081115723 0 174 126 251 5
7.29259252548217773 5.68391847610473633 0.805738329887390137 0 174 126 251 5
7.30586338043212891 5.64753532409667969 0.819394588470458984 0 174 126 251 5
7.31113958358764648 5.6090703010559082 0.852941572666168213 0 174 126 251 5
7.29460382461547852 5.65468549728393555 0.852575957775115967 0 174 126 251 5
7.30436897277832031 5.64565229415893555 0.884794831275939941 0 174 126 251 5
7.25644731521606445 5.77586555480957031 0.931560516357421875 0 174 126 251 5
7.23305320739746094 5.83464431762695312 0.887635469436645508 0 174 126 251 5
7.25743722915649414 5.78593778610229492 0.896818935871124268 0 174 126 251 5
7.22465610504150391 5.83483314514160156 0.930159270763397217 0 174 126 251 5
7.27399635314941406 5.73591423034667969 0.90471881628036499 0 174 126 251 5
7.26787900924682617 5.75271749496459961 0.935714006423950195 0 174 126 251 5
7.24784946441650391 5.82527017593383789 0.964400887489318848 0 174 126 251 5
7.22124719619750977 5.79446029663085938 0.931536316871643066 0 174 126 251 5
7.27310609817504883 5.75020170211791992 0.787850558757781982 0 174 126 251 5
7.27527713775634766 5.70743417739868164 0.741946518421173096 0 174 126 251 5
7.2867894172668457 5.71713113784790039 1.06407618522644043 0 174 126 251 5
7.25603818893432617 5.84370660781860352 1.3424224853515625 0 174 126 251 5
7.26996803283691406 5.70576810836791992 0.580357730388641357 0 174 126 251 5
7.26865339279174805 5.70882034301757812 0.613974034786224365 0 174 126 251 5
7.26350498199462891 5.74322748184204102 0.618104338645935059 0 174 126 251 5
7.31744718551635742 5.57568597793579102 0.65364992618560791 0 174 126 251 5
7.32807159423828125 5.52803802490234375 0.677052974700927734 0 174 126 251 5
7.32902622222900391 5.53708457946777344 0.709074199199676514 0 174 126 251 5
7.32328271865844727 5.57673740386962891 0.713256299495697021 0 174 126 251 5
7.26791095733642578 5.74341583251953125 0.715394735336303711 0 174 126 251 5
7.3384709358215332 5.53974819183349609 1.00546979904174805 0 174 126 251 5
7.33876228332519531 5.56993341445922852 1.07447242736816406 0 174 126 251 5
7.34747219085693359 5.52969121932983398 1.07368028163909912 0 174 126 251 5
7.34230709075927734 5.54583311080932617 1.11246705055236816 0 174 126 251 5
7.35613107681274414 5.49787378311157227 1.05094742774963379 0 174 126 251 5
7.24513912200927734 5.8430180549621582 1.11080706119537354 0 174 126 251 5
7.25457429885864258 5.8415369987487793 1.38294708728790283 0 174 126 251 5
7.36294174194335938 5.49797391891479492 1.31576955318450928 0 174 126 251 5
7.36067008972167969 5.50865030288696289 1.27604532241821289 0 174 126 251 5
7.25779819488525391 5.84550046920776367 1.42449510097503662 0 174 126 251 5
7.29185390472412109 5.75728511810302734 1.44644856452941895 0 174 126 251 5
7.27002811431884766 5.79210805892944336 1.38156282901763916 0 174 126 251 5
7.27328348159790039 5.72651386260986328 0.857188701629638672 0 174 126 251 5
7.27748680114746094 5.80390262603759766 1.4944082498550415 0 174 126 251 5
7.33687686920166016 5.59807777404785156 1.33723139762878418 0 174 126 251 5
7.34337568283081055 5.58796072006225586 1.29025471210479736 0 174 126 251 5
7.32126712799072266 5.63982391357421875 1.30476677417755127 0 174 126 251 5
7.28531742095947266 5.75744438171386719 1.26540267467498779 0 174 126 251 5
7.22884130477905273 5.83293819427490234 0.658905148506164551 0 174 126 251 5
7.24213933944702148 5.79280710220336914 0.638044834136962891 0 174 126 251 5
7.33912324905395508 5.56638813018798828 1.24873900413513184 0 174 126 251 5
7.34750461578369141 5.55255031585693359 1.28469061851501465 0 174 126 251 5
7.25108909606933594 5.8446345329284668 1.16652870178222656 0 174 126 251 5
7.33194398880004883 5.60380649566650391 1.23928260803222656 0 174 126 251 5
7.31660175323486328 5.63921499252319336 1.25693738460540771 0 174 126 251 5
7.22492122650146484 5.83849287033081055 0.724716067314147949 0 174 126 251 5
7.32447910308837891 5.58935546875 0.905162334442138672 0 174 126 251 5
7.3129277229309082 5.616241455078125 0.949538528919219971 0 174 126 251 5
7.32992172241210938 5.598175048828125 1.03766739368438721 0 174 126 251 5
7.31283283233642578 5.64219760894775391 1.03644418716430664 0 174 126 251 5
7.35479974746704102 5.54395866394042969 1.44149744510650635 0 174 126 251 5
7.2641448974609375 5.74378108978271484 0.577385544776916504 0 174 126 251 5
7.23023748397827148 5.82537364959716797 0.581232368946075439 0 174 126 251 5
7.34611034393310547 5.5502924919128418 1.31996679306030273 0 174 126 251 5
7.34574079513549805 5.57978725433349609 1.41637718677520752 0 174 126 251 5
7.34699487686157227 5.57981204986572266 1.39318442344665527 0 174 126 251 5
7.37704801559448242 5.52228498458862305 1.77964723110198975 0 174 126 251 5
7.36302518844604492 5.557037353515625 1.74571847915649414 0 174 126 251 5
7.3689427375793457 5.5592803955078125 1.80407857894897461 0 174 126 251 5
7.36647462844848633 5.57788801193237305 1.84677815437316895 0 174 126 251 5
7.30019044876098633 5.72411918640136719 1.51670503616333008 0 174 126 251 5
7.35330009460449219 5.55797863006591797 1.5509190559387207 0 174 126 251 5
7.31067657470703125 5.69277763366699219 1.57354211807250977 0 174 126 251 5
7.30796480178833008 5.70451545715332031 1.54014575481414795 0 174 126 251 5
7.37097978591918945 5.50419712066650391 1.53076612949371338 0 174 126 251 5
7.2560114860534668 5.85608816146850586 1.69662415981292725 0 174 126 251 5
7.25892496109008789 5.86202907562255859 1.73637187480926514 0 174 126 251 5
7.37069177627563477 5.5184783935546875 1.69948065280914307 0 174 126 251 5
7.29030799865722656 5.79901123046875 1.90255343914031982 0 174 126 251 5
7.27264261245727539 5.8278651237487793 1.8614267110824585 0 174 126 251 5
7.27129554748535156 5.85537385940551758 1.90552902221679688 0 174 126 251 5
7.30443525314331055 5.77121162414550781 1.88037097454071045 0 174 126 251 5
7.28927803039550781 5.80054569244384766 1.85708332061767578 0 174 126 251 5
7.30426120758056641 5.77220010757446289 1.93882322311401367 0 174 126 251 5
7.33169221878051758 5.65517854690551758 1.68951070308685303 0 174 126 251 5
7.30347251892089844 5.73313426971435547 1.70727777481079102 0 174 126 251 5
7.32686901092529297 5.67961931228637695 1.77079927921295166 0 174 126 251 5
7.30967617034912109 5.73771238327026367 1.76501333713531494 0 174 126 251 5
7.35387039184570312 5.64138603210449219 1.90772020816802979 0 174 126 251 5
7.34450387954711914 5.64838552474975586 1.94155383110046387 0 174 126 251 5
7.33956289291381836 5.65852689743041992 1.97136163711547852 0 174 126 251 5
7.37065744400024414 5.53641510009765625 1.83923506736755371 0 174 126 251 5
7.36249065399169922 5.60733366012573242 1.90028524398803711 0 174 126 251 5
7.37533807754516602 5.54257917404174805 1.89581584930419922 0 174 126 251 5
7.32307338714599609 5.72316932678222656 1.93952608108520508 0 174 126 251 5
7.33392953872680664 5.68193340301513672 1.92598772048950195 0 174 126 251 5
7.32453441619873047 5.71425533294677734 1.97061455249786377 0 174 126 251 5
7.37530279159545898 5.51753950119018555 1.73292374610900879 0 174 126 251 5
7.35930633544921875 5.57822847366333008 1.71502161026000977 0 174 126 251 5
7.34148311614990234 5.61082649230957031 1.50753521919250488 0 174 126 251 5
7.34408760070800781 5.59878826141357422 1.55046248435974121 0 174 126 251 5
7.33123779296875 5.63417530059814453 1.56054103374481201 0 174 126 251 5
7.34795999526977539 5.60266876220703125 1.59108221530914307 0 174 126 251 5
7.2664794921875 5.8567047119140625 1.78775572776794434 0 174 126 251 5
7.32715082168579102 5.65627384185791016 1.62930738925933838 0 174 126 251 5
7.31386375427246094 5.68651676177978516 1.65905106067657471 0 174 126 251 5
7.34724283218383789 5.61293840408325195 1.67221617698669434 0 174 126 251 5
7.29529380798339844 5.7647252082824707 1.56382668018341064 0 174 126 251 5
7.29134035110473633 5.77068614959716797 1.53820419311523438 0 174 126 251 5
7.26812362670898438 5.84090948104858398 1.64076006412506104 0 174 126 251 5
7.29419755935668945 5.76656389236450195 1.59448468685150146 0 174 126 251 5
7.27243185043334961 5.81542396545410156 1.6065676212310791 0 174 126 251 5
7.28181886672973633 5.80546331405639648 1.66156375408172607 0 174 126 251 5
7.29444408416748047 5.77215909957885742 1.65405368804931641 0 174 126 251 5
7.27431488037109375 5.80619239807128906 1.53611981868743896 0 174 126 251 5
7.25823163986206055 5.85633993148803711 1.56357800960540771 0 174 126 251 5
7.26055812835693359 5.85357666015625 1.53050148487091064 0 174 126 251 5
7.31292009353637695 5.72724008560180664 1.80585980415344238 0 174 126 251 5
7.31152105331420898 5.74900627136230469 1.89943194389343262 0 174 126 251 5
7.31929397583007812 5.71266412734985352 1.8399658203125 0 174 126 251 5
7.30445718765258789 5.75105524063110352 1.84034287929534912 0 174 126 251 5
7.32795619964599609 5.70338582992553711 1.86553394794464111 0 174 126 251 5
7.3391118049621582 5.67536830902099609 1.88913607597351074 0 174 126 251 5
7.36578702926635742 5.51477766036987305 1.56075334548950195 0 174 126 251 5
7.37386369705200195 5.54826641082763672 1.93537771701812744 0 174 126 251 5
7.37019014358520508 5.5832819938659668 1.91375923156738281 0 174 126 251 5
7.39041376113891602 5.50348567962646484 1.96479141712188721 0 174 126 251 5
7.36440038681030273 5.58945417404174805 1.97388029098510742 0 174 126 251 5
7.37743949890136719 5.53776931762695312 1.97022807598114014 0 174 126 251 5
7.28892421722412109 5.81411218643188477 1.96168804168701172 0 174 126 251 5
7.3072047233581543 5.74944448471069336 1.97321057319641113 0 174 126 251 5
7.27360677719116211 5.84367513656616211 1.81853532791137695 0 174 126 251 5
7.25852203369140625 5.86239480972290039 1.86657094955444336 0 174 126 251 5
7.38260984420776367 5.49008703231811523 1.60611891746520996 0 174 126 251 5
7.34480524063110352 5.62697029113769531 1.71055877208709717 0 174 126 251 5
7.33412647247314453 5.65709924697875977 1.73935961723327637 0 174 126 251 5
7.29834413528442383 5.769744873046875 1.71404087543487549 0 174 126 251 5
7.27060556411743164 5.82500028610229492 1.70819664001464844 0 174 126 251 5
7.29531431198120117 5.78186368942260742 1.74799907207489014 0 174 126 251 5
7.35943889617919922 5.61093950271606445 1.80897116661071777 0 174 126 251 5
7.35871648788452148 5.60218334197998047 1.94279122352600098 0 174 126 251 5
7.28145217895507812 5.80872249603271484 1.7702324390411377 0 174 126 251 5
7.28748846054077148 5.80484962463378906 1.81313979625701904 0 174 126 251 5
7.30109930038452148 5.77409696578979492 1.80869913101196289 0 174 126 251 5
7.25939130783081055 5.85354232788085938 1.58777737617492676 0 174 126 251 5
7.2550811767578125 5.86234951019287109 1.63998317718505859 0 174 126 251 5
7.24140119552612305 5.86610078811645508 1.68694603443145752 0 174 126 251 5
7.35620784759521484 5.59703636169433594 1.75285840034484863 0 174 126 251 5
7.32671356201171875 5.68710565567016602 1.82398974895477295 0 174 126 251 5
7.35048866271972656 5.63724994659423828 1.83947110176086426 0 174 126 251 5
7.34579086303710938 5.64457321166992188 1.77613604068756104 0 174 126 251 5
7.26372718811035156 5.86561012268066406 1.91005492210388184 0 174 126 251 5
7.26277637481689453 5.86619663238525391 1.96246707439422607 0 174 126 251 5
7.2716827392578125 5.85587072372436523 1.97246646881103516 0 174 126 251 5
7.30243825912475586 5.73218584060668945 1.6093590259552002 0 174 126 251 5
7.3047032356262207 5.7221074104309082 1.66534149646759033 0 174 126 251 5
7.38065624237060547 5.49104976654052734 1.64282512664794922 0 174 126 251 5
7.35540151596069336 5.55758476257324219 1.61179494857788086 0 174 126 251 5
7.36189556121826172 5.54597711563110352 1.70305001735687256 0 174 126 251 5
7.3549046516418457 5.57313442230224609 1.64466238021850586 0 174 126 251 5
