ply
format ascii 1.0
element vertex 612
property float x
property float y
property float z
property uchar red
property uchar green
property uchar blue
property uchar alpha
property uint label
end_header
2.56169986724853516 7.0098114013671875 1.56902611255645752 0 143 156 238 18
2.52884793281555176 7.003021240234375 1.58553564548492432 0 143 156 238 18
2.50592374801635742 6.99633264541625977 1.64455533027648926 0 143 156 238 18
2.5550847053527832 7.40016794204711914 1.12695002555847168 0 143 156 238 18
2.55297017097473145 7.40836000442504883 1.16249251365661621 0 143 156 238 18
2.62113618850708008 7.17210531234741211 1.4055790901184082 0 143 156 238 18
2.55350303649902344 7.39676284790039062 1.15117132663726807 0 143 156 238 18
2.57258939743041992 7.33249998092651367 1.14999997615814209 0 143 156 238 18
2.57759499549865723 7.32731437683105469 1.12730765342712402 0 143 156 238 18
2.59186220169067383 7.26946926116943359 1.16456222534179688 0 143 156 238 18
2.59560275077819824 7.02604055404663086 1.40939736366271973 0 143 156 238 18
2.6022331714630127 7.02714252471923828 1.45907986164093018 0 143 156 238 18
2.59729576110839844 7.03123903274536133 1.52294814586639404 0 143 156 238 18
2.64412188529968262 7.11273670196533203 1.32442426681518555 0 143 156 238 18
2.63661336898803711 7.07340478897094727 1.32165622711181641 0 143 156 238 18
2.61956977844238281 7.18178510665893555 1.17382705211639404 0 143 156 238 18
2.64568281173706055 7.12160921096801758 1.13669610023498535 0 143 156 238 18
2.60245800018310547 7.02881526947021484 1.31187176704406738 0 143 156 238 18
2.64214205741882324 7.0787663459777832 1.29931151866912842 0 143 156 238 18
2.6622016429901123 7.08366060256958008 1.11861169338226318 0 143 156 238 18
2.6541290283203125 7.07930278778076172 1.21053397655487061 0 143 156 238 18
2.6542665958404541 7.11511993408203125 1.27472615242004395 0 143 156 238 18
2.65855693817138672 7.09340476989746094 1.21876716613769531 0 143 156 238 18
2.64854049682617188 7.07224893569946289 1.26358890533447266 0 143 156 238 18
2.63698983192443848 7.12955331802368164 1.39272463321685791 0 143 156 238 18
2.62181615829467773 7.04332208633422852 1.47002339363098145 0 143 156 238 18
2.63505887985229492 7.06213808059692383 1.48703765869140625 0 143 156 238 18
2.63231205940246582 7.06606340408325195 1.43259859085083008 0 143 156 238 18
2.61471176147460938 7.19089460372924805 1.14850509166717529 0 143 156 238 18
2.59418392181396484 7.25084543228149414 1.15398848056793213 0 143 156 238 18
2.59798598289489746 7.26591682434082031 1.12470424175262451 0 143 156 238 18
2.59264421463012695 7.25777769088745117 1.13681995868682861 0 143 156 238 18
2.65121960639953613 7.09751224517822266 1.15413975715637207 0 143 156 238 18
2.64728689193725586 7.1360173225402832 1.12356805801391602 0 143 156 238 18
2.63805675506591797 7.06992292404174805 1.37969517707824707 0 143 156 238 18
2.64454269409179688 7.10592746734619141 1.37268722057342529 0 143 156 238 18
2.52582192420959473 7.01079845428466797 1.5297389030456543 0 143 156 238 18
2.55075335502624512 7.42367124557495117 1.128470778465271 0 143 156 238 18
2.64870381355285645 7.11076068878173828 1.18819916248321533 0 143 156 238 18
2.66507315635681152 7.11747026443481445 1.23163783550262451 0 143 156 238 18
2.68052268028259277 7.07445478439331055 1.7134014368057251 0 143 156 238 18
2.61522746086120605 7.04080915451049805 1.69666612148284912 0 143 156 238 18
2.55969333648681641 7.02584505081176758 1.70999741554260254 0 143 156 238 18
2.62511444091796875 7.05042219161987305 1.59750330448150635 0 143 156 238 18
2.57984066009521484 7.02554845809936523 1.67981362342834473 0 143 156 238 18
2.6293492317199707 7.05391836166381836 1.6526259183883667 0 143 156 238 18
2.62686610221862793 7.05835628509521484 1.62897920608520508 0 143 156 238 18
2.63719439506530762 7.07665395736694336 1.62130320072174072 0 143 156 238 18
2.59009337425231934 7.01881742477416992 1.57546472549438477 0 143 156 238 18
2.63658452033996582 7.06854820251464844 1.57119452953338623 0 143 156 238 18
2.63360142707824707 7.0656895637512207 1.52335834503173828 0 143 156 238 18
2.56964421272277832 7.00896549224853516 1.64619326591491699 0 143 156 238 18
2.60624098777770996 7.04138374328613281 1.71886038780212402 0 143 156 238 18
2.6253819465637207 7.05912637710571289 1.73536646366119385 0 143 156 238 18
2.58839535713195801 7.0194249153137207 1.62450492382049561 0 143 156 238 18
1.01333761215209961 6.25441980361938477 1.2986297607421875 0 143 156 238 18
1.07322883605957031 6.23618745803833008 1.26759445667266846 0 143 156 238 18
0.980934739112854004 6.26506853103637695 1.29483914375305176 0 143 156 238 18
1.03768634796142578 6.24749612808227539 1.33685731887817383 0 143 156 238 18
1.02490878105163574 6.24763059616088867 1.25329756736755371 0 143 156 238 18
1.02318429946899414 6.24649429321289062 1.22422909736633301 0 143 156 238 18
0.983231484889984131 6.25066518783569336 1.22703874111175537 0 143 156 238 18
1.01462066173553467 6.25684452056884766 0.974272072315216064 0 143 156 238 18
1.10251593589782715 6.23804426193237305 0.989585340023040771 0 143 156 238 18
0.911492884159088135 6.17054224014282227 0.80980449914932251 0 143 156 238 18
0.894579708576202393 6.2030181884765625 0.796825230121612549 0 143 156 238 18
0.930693686008453369 6.17024946212768555 0.816152870655059814 0 143 156 238 18
0.957298338413238525 6.2018895149230957 0.821514010429382324 0 143 156 238 18
0.92135155200958252 6.20241260528564453 0.809680342674255371 0 143 156 238 18
0.901519536972045898 6.24258756637573242 0.807810842990875244 0 143 156 238 18
0.923181414604187012 6.24636459350585938 0.830398380756378174 0 143 156 238 18
1.11673426628112793 6.23621559143066406 1.46202290058135986 0 143 156 238 18
1.05814611911773682 6.24211406707763672 1.45990002155303955 0 143 156 238 18
1.11383962631225586 6.23340559005737305 1.47921562194824219 0 143 156 238 18
1.12054336071014404 6.23482847213745117 1.40799164772033691 0 143 156 238 18
1.05876457691192627 6.24037027359008789 1.47676563262939453 0 143 156 238 18
1.11492013931274414 6.22951030731201172 1.25826489925384521 0 143 156 238 18
0.849972426891326904 6.17298507690429688 0.806276619434356689 0 143 156 238 18
0.866903185844421387 6.17032957077026367 0.807750999927520752 0 143 156 238 18
0.918407201766967773 6.25872802734375 0.804884672164916992 0 143 156 238 18
0.959952473640441895 6.22897958755493164 0.85335463285446167 0 143 156 238 18
0.941135406494140625 6.24487543106079102 0.864609837532043457 0 143 156 238 18
0.936728239059448242 6.22871065139770508 0.819781363010406494 0 143 156 238 18
0.941672265529632568 6.25092887878417969 0.845698237419128418 0 143 156 238 18
0.951266467571258545 6.26206302642822266 0.923977971076965332 0 143 156 238 18
0.924946129322052002 6.26396036148071289 0.88538515567779541 0 143 156 238 18
0.906234860420227051 6.25554370880126953 0.931431114673614502 0 143 156 238 18
0.934536457061767578 6.25756645202636719 0.89827883243560791 0 143 156 238 18
0.885814070701599121 6.23365402221679688 0.799964964389801025 0 143 156 238 18
0.872159004211425781 6.19539976119995117 0.788732588291168213 0 143 156 238 18
1.09464597702026367 6.23974847793579102 0.865631461143493652 0 143 156 238 18
1.075897216796875 6.23659706115722656 0.809041798114776611 0 143 156 238 18
1.14005982875823975 6.21745014190673828 0.772202432155609131 0 143 156 238 18
0.927451252937316895 6.25904989242553711 1.01949393749237061 0 143 156 238 18
0.8948250412940979 6.26683139801025391 0.982075750827789307 0 143 156 238 18
0.890899300575256348 6.26724386215209961 1.00737059116363525 0 143 156 238 18
0.917199134826660156 6.26793479919433594 0.999808430671691895 0 143 156 238 18
0.928012192249298096 6.26587581634521484 0.971434712409973145 0 143 156 238 18
1.01581656932830811 6.25903797149658203 0.929168522357940674 0 143 156 238 18
1.12015092372894287 6.24090385437011719 0.948720991611480713 0 143 156 238 18
1.08771872520446777 6.24352598190307617 0.946667373180389404 0 143 156 238 18
1.0776364803314209 6.24196386337280273 1.06164300441741943 0 143 156 238 18
1.01415407657623291 6.25936746597290039 1.10054159164428711 0 143 156 238 18
1.12029922008514404 6.23499679565429688 1.08013534545898438 0 143 156 238 18
1.08343291282653809 6.2339024543762207 1.39062130451202393 0 143 156 238 18
1.14300918579101562 6.23397684097290039 1.26275646686553955 0 143 156 238 18
1.13169968128204346 6.23499155044555664 1.34161698818206787 0 143 156 238 18
0.97093123197555542 6.2433781623840332 0.820720255374908447 0 143 156 238 18
1.00662922859191895 6.25443792343139648 0.823744118213653564 0 143 156 238 18
0.968033730983734131 6.25976228713989258 0.805965185165405273 0 143 156 238 18
0.966813325881958008 6.25466680526733398 0.845034956932067871 0 143 156 238 18
0.944705724716186523 6.25828409194946289 0.867367029190063477 0 143 156 238 18
0.979552209377288818 6.25516796112060547 0.882068753242492676 0 143 156 238 18
0.883698344230651855 6.26704692840576172 0.793016135692596436 0 143 156 238 18
0.931477844715118408 6.27128028869628906 0.776703476905822754 0 143 156 238 18
0.972827017307281494 6.14379453659057617 0.825206160545349121 0 143 156 238 18
0.996979236602783203 6.17260456085205078 0.832932114601135254 0 143 156 238 18
1.00984013080596924 6.1392369270324707 0.839638173580169678 0 143 156 238 18
1.01707100868225098 6.16760540008544922 0.844010353088378906 0 143 156 238 18
1.1302647590637207 6.23323583602905273 0.828589320182800293 0 143 156 238 18
1.12449181079864502 6.23813533782958984 0.864709556102752686 0 143 156 238 18
0.974956691265106201 6.27239274978637695 1.3589470386505127 0 143 156 238 18
1.04170775413513184 6.24308681488037109 1.39465212821960449 0 143 156 238 18
1.00454866886138916 6.25440073013305664 1.39334821701049805 0 143 156 238 18
0.974164009094238281 6.268096923828125 1.40262997150421143 0 143 156 238 18
1.10156404972076416 6.22690677642822266 0.790717184543609619 0 143 156 238 18
1.04116141796112061 6.23632335662841797 0.785167872905731201 0 143 156 238 18
0.987052202224731445 6.2574620246887207 0.788490116596221924 0 143 156 238 18
1.01355063915252686 6.25922250747680664 0.870184540748596191 0 143 156 238 18
0.983382642269134521 6.25996732711791992 0.953705489635467529 0 143 156 238 18
1.09304499626159668 6.23890924453735352 1.11192595958709717 0 143 156 238 18
1.00230729579925537 6.25451898574829102 1.43620836734771729 0 143 156 238 18
0.972397327423095703 6.2710113525390625 1.45054054260253906 0 143 156 238 18
1.01146543025970459 6.25845861434936523 1.46420824527740479 0 143 156 238 18
0.957228004932403564 6.27306604385375977 1.47454583644866943 0 143 156 238 18
1.07999992370605469 6.23712158203125 1.34500002861022949 0 143 156 238 18
0.971387803554534912 6.23258781433105469 0.874362647533416748 0 143 156 238 18
0.994740724563598633 6.21878528594970703 0.841195583343505859 0 143 156 238 18
0.981109082698822021 6.20325660705566406 0.834729373455047607 0 143 156 238 18
0.964141547679901123 6.2270665168762207 0.824988245964050293 0 143 156 238 18
0.992425620555877686 6.18426418304443359 0.847611367702484131 0 143 156 238 18
0.982247710227966309 6.23657655715942383 0.836213827133178711 0 143 156 238 18
0.851374149322509766 6.13291501998901367 0.810292303562164307 0 143 156 238 18
1.01955330371856689 6.25852298736572266 1.02184128761291504 0 143 156 238 18
0.952737867832183838 6.26359128952026367 0.995657742023468018 0 143 156 238 18
1.081756591796875 6.23173999786376953 1.21926546096801758 0 143 156 238 18
1.12365984916687012 6.22716236114501953 1.2137826681137085 0 143 156 238 18
1.12120962142944336 6.2373814582824707 1.0385439395904541 0 143 156 238 18
1.13028955459594727 6.23776006698608398 0.985629260540008545 0 143 156 238 18
1.13822591304779053 6.244384765625 0.946474850177764893 0 143 156 238 18
0.9248923659324646 6.25992918014526367 1.16053009033203125 0 143 156 238 18
0.969553649425506592 6.25722074508666992 1.14695346355438232 0 143 156 238 18
0.947783827781677246 6.2567286491394043 1.18999648094177246 0 143 156 238 18
0.914857327938079834 6.26243877410888672 1.12374067306518555 0 143 156 238 18
0.972104847431182861 6.26114320755004883 1.04203546047210693 0 143 156 238 18
1.01911783218383789 6.25745487213134766 1.05408823490142822 0 143 156 238 18
0.961690545082092285 6.26263666152954102 1.25305724143981934 0 143 156 238 18
0.948377311229705811 6.25673437118530273 1.21898901462554932 0 143 156 238 18
0.942203521728515625 6.27943563461303711 1.29192566871643066 0 143 156 238 18
0.897395491600036621 6.30420255661010742 1.27854382991790771 0 143 156 238 18
0.903381705284118652 6.29519081115722656 1.25575125217437744 0 143 156 238 18
0.939443290233612061 6.26390409469604492 1.0975116491317749 0 143 156 238 18
0.964725971221923828 6.26546287536621094 1.08953499794006348 0 143 156 238 18
0.917942941188812256 6.25855350494384766 1.04633188247680664 0 143 156 238 18
0.898136794567108154 6.267303466796875 1.06307661533355713 0 143 156 238 18
0.908723056316375732 6.26578617095947266 1.09121084213256836 0 143 156 238 18
0.944975137710571289 6.28794765472412109 1.34997773170471191 0 143 156 238 18
0.905410706996917725 6.2959141731262207 1.27841734886169434 0 143 156 238 18
1.10592007637023926 6.23274564743041992 1.36248159408569336 0 143 156 238 18
1.09868884086608887 6.23371219635009766 1.44443464279174805 0 143 156 238 18
1.01027345657348633 6.25563478469848633 1.13300752639770508 0 143 156 238 18
1.02435874938964844 6.2494959831237793 1.15775120258331299 0 143 156 238 18
1.11306500434875488 6.23186492919921875 1.16233515739440918 0 143 156 238 18
2.48926424980163574 6.96026325225830078 0.892370879650115967 0 143 156 238 18
2.56197714805603027 6.99853658676147461 0.935396492481231689 0 143 156 238 18
2.50313377380371094 6.97853660583496094 0.928775548934936523 0 143 156 238 18
2.26451611518859863 6.85952186584472656 0.884935855865478516 0 143 156 238 18
2.27955245971679688 6.87865877151489258 0.92798084020614624 0 143 156 238 18
2.32822346687316895 6.88469362258911133 0.888965964317321777 0 143 156 238 18
2.32863593101501465 6.89858198165893555 0.925195276737213135 0 143 156 238 18
2.44995880126953125 6.94645500183105469 0.971647799015045166 0 143 156 238 18
2.462249755859375 6.96227073669433594 0.939276218414306641 0 143 156 238 18
2.32561326026916504 6.88634586334228516 0.968664109706878662 0 143 156 238 18
2.36370444297790527 6.90726661682128906 0.979373812675476074 0 143 156 238 18
2.46154546737670898 6.96270370483398438 0.923028409481048584 0 143 156 238 18
2.53322029113769531 7.01019001007080078 1.22149455547332764 0 143 156 238 18
2.39819216728210449 6.92672443389892578 0.932773053646087646 0 143 156 238 18
2.21053481101989746 6.85176610946655273 0.917164504528045654 0 143 156 238 18
2.61567306518554688 7.0226435661315918 1.16648185253143311 0 143 156 238 18
3.14962863922119141 7.27362680435180664 1.08131718635559082 0 143 156 238 18
2.6968989372253418 7.08203029632568359 0.960548341274261475 0 143 156 238 18
2.66011834144592285 7.05655288696289062 0.98706287145614624 0 143 156 238 18
2.63623571395874023 7.0354619026184082 1.06526601314544678 0 143 156 238 18
2.70250988006591797 7.08681106567382812 0.996213197708129883 0 143 156 238 18
2.62975287437438965 7.0322880744934082 0.946176350116729736 0 143 156 238 18
2.59997272491455078 7.01763486862182617 1.26055610179901123 0 143 156 238 18
2.98793220520019531 7.1657567024230957 0.91199958324432373 0 143 156 238 18
2.97979450225830078 7.20564651489257812 0.95344090461730957 0 143 156 238 18
2.93564319610595703 7.17303133010864258 0.944727838039398193 0 143 156 238 18
2.80853366851806641 7.09544801712036133 0.910683155059814453 0 143 156 238 18
2.52763652801513672 6.97201919555664062 0.88414609432220459 0 143 156 238 18
3.21090817451477051 7.29237031936645508 0.964902102947235107 0 143 156 238 18
2.94640398025512695 7.20768213272094727 1.08316218852996826 0 143 156 238 18
3.13388609886169434 7.2779240608215332 1.03418457508087158 0 143 156 238 18
3.14623379707336426 7.27204179763793945 1.06401443481445312 0 143 156 238 18
3.09217476844787598 7.25415849685668945 1.01423263549804688 0 143 156 238 18
3.09037446975708008 7.26152515411376953 1.06953227519989014 0 143 156 238 18
3.0245974063873291 7.23410797119140625 1.08431899547576904 0 143 156 238 18
3.09195709228515625 7.26680564880371094 1.08538234233856201 0 143 156 238 18
2.71936655044555664 7.05731105804443359 0.908442914485931396 0 143 156 238 18
2.75444912910461426 7.09495830535888672 0.9375801682472229 0 143 156 238 18
2.77342057228088379 7.08641195297241211 0.917908728122711182 0 143 156 238 18
2.74306559562683105 7.09859561920166016 0.962797403335571289 0 143 156 238 18
2.76170659065246582 7.11501693725585938 1.00682985782623291 0 143 156 238 18
2.62793827056884766 7.03986978530883789 1.20665621757507324 0 143 156 238 18
3.01435661315917969 7.22530555725097656 1.05715596675872803 0 143 156 238 18
3.05284214019775391 7.24305582046508789 1.068869948387146 0 143 156 238 18
2.95443129539489746 7.20279788970947266 1.01582884788513184 0 143 156 238 18
2.9967198371887207 7.22283649444580078 1.08262157440185547 0 143 156 238 18
2.63053679466247559 7.03204584121704102 0.922388076782226562 0 143 156 238 18
2.6761322021484375 7.05780887603759766 0.933582425117492676 0 143 156 238 18
2.92448902130126953 7.18848943710327148 1.03817331790924072 0 143 156 238 18
2.88678193092346191 7.17962455749511719 1.06833744049072266 0 143 156 238 18
3.12409043312072754 7.27344751358032227 1.00346946716308594 0 143 156 238 18
3.14310407638549805 7.27891683578491211 0.98981022834777832 0 143 156 238 18
3.19135761260986328 7.29818582534790039 1.01094341278076172 0 143 156 238 18
3.0703434944152832 7.24186277389526367 0.964281380176544189 0 143 156 238 18
3.09376239776611328 7.21703863143920898 0.92815399169921875 0 143 156 238 18
3.1861109733581543 7.28693103790283203 1.05217039585113525 0 143 156 238 18
2.65056252479553223 7.0523524284362793 1.11805582046508789 0 143 156 238 18
2.64898967742919922 7.060943603515625 1.17717218399047852 0 143 156 238 18
2.65059900283813477 7.06327915191650391 1.14405739307403564 0 143 156 238 18
2.60700035095214844 7.00410747528076172 0.891436874866485596 0 143 156 238 18
2.64543390274047852 7.03191137313842773 0.899448096752166748 0 143 156 238 18
2.91233205795288086 7.17895936965942383 0.971234440803527832 0 143 156 238 18
2.91333413124084473 7.18309211730957031 0.999112486839294434 0 143 156 238 18
2.95393776893615723 7.19562244415283203 0.964186310768127441 0 143 156 238 18
2.55082941055297852 6.98489189147949219 0.978098511695861816 0 143 156 238 18
2.62668967247009277 7.02079916000366211 0.986811578273773193 0 143 156 238 18
2.58921051025390625 7.01656007766723633 0.947359025478363037 0 143 156 238 18
2.58682465553283691 7.00692415237426758 0.981075584888458252 0 143 156 238 18
2.54786014556884766 7.00570297241210938 1.17942965030670166 0 143 156 238 18
2.61837172508239746 7.02661657333374023 1.14218699932098389 0 143 156 238 18
3.03994321823120117 7.23498344421386719 1.0149075984954834 0 143 156 238 18
3.10680937767028809 7.25692605972290039 0.9716910719871521 0 143 156 238 18
2.58925557136535645 7.01738452911376953 1.23119270801544189 0 143 156 238 18
2.6220855712890625 7.02880287170410156 1.26607906818389893 0 143 156 238 18
2.57102489471435547 7.00968694686889648 1.29050171375274658 0 143 156 238 18
2.60772871971130371 7.02352285385131836 1.2139289379119873 0 143 156 238 18
2.66177034378051758 7.06300449371337891 1.04950463771820068 0 143 156 238 18
2.63278484344482422 7.03008842468261719 1.10163509845733643 0 143 156 238 18
2.69636058807373047 7.08958768844604492 1.06809639930725098 0 143 156 238 18
2.68016695976257324 7.07831239700317383 1.09306788444519043 0 143 156 238 18
2.99729394912719727 7.21642255783081055 0.986968159675598145 0 143 156 238 18
3.03635621070861816 7.23474931716918945 0.97516179084777832 0 143 156 238 18
3.0046842098236084 7.2135772705078125 1.02495968341827393 0 143 156 238 18
2.7657473087310791 7.13082408905029297 1.06968510150909424 0 143 156 238 18
2.82112002372741699 7.15441513061523438 1.0567246675491333 0 143 156 238 18
2.85082054138183594 7.16802453994750977 1.07434630393981934 0 143 156 238 18
2.81091499328613281 7.16155719757080078 1.08296716213226318 0 143 156 238 18
2.85844874382019043 7.17471551895141602 1.08627843856811523 0 143 156 238 18
2.85759472846984863 7.12448692321777344 0.913887500762939453 0 143 156 238 18
2.84251046180725098 7.14257049560546875 0.944087028503417969 0 143 156 238 18
2.88416814804077148 7.13599729537963867 0.921888172626495361 0 143 156 238 18
2.79214954376220703 7.12888479232788086 0.952564775943756104 0 143 156 238 18
2.87639498710632324 7.16327238082885742 0.956411659717559814 0 143 156 238 18
3.13544297218322754 7.23860454559326172 0.934580564498901367 0 143 156 238 18
2.74474596977233887 7.10768556594848633 1.03915917873382568 0 143 156 238 18
3.04666423797607422 7.22976875305175781 0.954984009265899658 0 143 156 238 18
2.84598445892333984 7.17123508453369141 1.01332986354827881 0 143 156 238 18
2.83800339698791504 7.1504826545715332 0.964954376220703125 0 143 156 238 18
2.79530048370361328 7.13566732406616211 1.01516628265380859 0 143 156 238 18
3.18154740333557129 7.25954771041870117 0.939743161201477051 0 143 156 238 18
2.73662304878234863 7.11136436462402344 1.07457065582275391 0 143 156 238 18
3.04495644569396973 7.198883056640625 0.923283994197845459 0 143 156 238 18
2.6395561695098877 7.02349185943603516 0.858894109725952148 0 143 156 238 18
3.07593369483947754 7.4341120719909668 1.61110794544219971 0 143 156 238 18
3.07360363006591797 7.42974233627319336 1.62679290771484375 0 143 156 238 18
3.11082601547241211 7.39161348342895508 1.62034809589385986 0 143 156 238 18
3.10348033905029297 7.3541102409362793 1.63893735408782959 0 143 156 238 18
3.05802154541015625 7.35984086990356445 1.64500331878662109 0 143 156 238 18
3.09089159965515137 7.38798046112060547 1.64361858367919922 0 143 156 238 18
3.0334780216217041 7.39973831176757812 1.64355325698852539 0 143 156 238 18
3.0698094367980957 7.41862726211547852 1.63840138912200928 0 143 156 238 18
3.04253554344177246 7.26513671875 1.53011798858642578 0 143 156 238 18
3.0845181941986084 7.27623701095581055 1.53869664669036865 0 143 156 238 18
3.06946992874145508 7.26448822021484375 1.57623040676116943 0 143 156 238 18
3.02937865257263184 7.2571721076965332 1.60009157657623291 0 143 156 238 18
2.62465500831604004 7.19970130920410156 1.54540586471557617 0 143 156 238 18
2.61574149131774902 7.19694614410400391 1.57168781757354736 0 143 156 238 18
3.00829505920410156 7.37169837951660156 1.68463921546936035 0 143 156 238 18
3.01122188568115234 7.37896251678466797 1.6632307767868042 0 143 156 238 18
2.73374748229980469 7.149566650390625 1.59440183639526367 0 143 156 238 18
2.77830219268798828 7.16068029403686523 1.60292696952819824 0 143 156 238 18
2.7870171070098877 7.16791009902954102 1.63646328449249268 0 143 156 238 18
2.74535441398620605 7.19276142120361328 1.65208947658538818 0 143 156 238 18
2.74103736877441406 7.17877960205078125 1.62035119533538818 0 143 156 238 18
2.98076224327087402 7.43775463104248047 1.65920412540435791 0 143 156 238 18
2.98944377899169922 7.46896791458129883 1.65291309356689453 0 143 156 238 18
2.94873380661010742 7.49039363861083984 1.66829478740692139 0 143 156 238 18
2.98902702331542969 7.53310441970825195 1.66429388523101807 0 143 156 238 18
3.01389026641845703 7.48430776596069336 1.65356993675231934 0 143 156 238 18
3.00541400909423828 7.24461555480957031 1.61180806159973145 0 143 156 238 18
2.98071122169494629 7.22369861602783203 1.6385805606842041 0 143 156 238 18
2.98203802108764648 7.21461868286132812 1.66882979869842529 0 143 156 238 18
3.03089189529418945 7.25401830673217773 1.65087258815765381 0 143 156 238 18
3.04578375816345215 7.24183511734008789 1.67439937591552734 0 143 156 238 18
2.9441378116607666 7.20233583450317383 1.66924524307250977 0 143 156 238 18
3.03775763511657715 7.34530305862426758 1.68048715591430664 0 143 156 238 18
3.0520322322845459 7.33904027938842773 1.65267360210418701 0 143 156 238 18
3.09171676635742188 7.3157806396484375 1.62888717651367188 0 143 156 238 18
3.11363744735717773 7.33102798461914062 1.62483656406402588 0 143 156 238 18
3.06460022926330566 7.28913688659667969 1.64274060726165771 0 143 156 238 18
3.08861041069030762 7.42334794998168945 1.54805982112884521 0 143 156 238 18
3.06272721290588379 7.26835536956787109 1.62412786483764648 0 143 156 238 18
3.09216403961181641 7.27748537063598633 1.59546995162963867 0 143 156 238 18
3.05732846260070801 7.26150989532470703 1.65507400035858154 0 143 156 238 18
2.84630584716796875 7.14471340179443359 1.70030522346496582 0 143 156 238 18
2.88817167282104492 7.20458793640136719 1.58129203319549561 0 143 156 238 18
2.84738445281982422 7.18625640869140625 1.58714330196380615 0 143 156 238 18
2.82345867156982422 7.17002677917480469 1.52747237682342529 0 143 156 238 18
2.88293743133544922 7.19284534454345703 1.52864480018615723 0 143 156 238 18
2.79455280303955078 7.17080116271972656 1.5567547082901001 0 143 156 238 18
2.74318790435791016 7.17064809799194336 1.68712890148162842 0 143 156 238 18
2.76581645011901855 7.16484928131103516 1.68179512023925781 0 143 156 238 18
2.74584627151489258 7.18679237365722656 1.67130672931671143 0 143 156 238 18
2.74589705467224121 7.11520481109619141 1.70566344261169434 0 143 156 238 18
2.7822718620300293 7.14541387557983398 1.69401693344116211 0 143 156 238 18
2.80872344970703125 7.13299131393432617 1.70502769947052002 0 143 156 238 18
2.8027951717376709 7.12671279907226562 1.7153397798538208 0 143 156 238 18
2.98339414596557617 7.23504447937011719 1.59242284297943115 0 143 156 238 18
2.99557280540466309 7.24541997909545898 1.55549430847167969 0 143 156 238 18
3.04246425628662109 7.49616098403930664 1.60874998569488525 0 143 156 238 18
3.0460364818572998 7.44973134994506836 1.64398765563964844 0 143 156 238 18
2.84265780448913574 7.15947437286376953 1.66226112842559814 0 143 156 238 18
2.79975676536560059 7.16148996353149414 1.65737748146057129 0 143 156 238 18
2.82067728042602539 7.16311120986938477 1.61628401279449463 0 143 156 238 18
2.79666399955749512 7.16309118270874023 1.59868359565734863 0 143 156 238 18
2.85422062873840332 7.16744327545166016 1.64249789714813232 0 143 156 238 18
2.86637163162231445 7.19134998321533203 1.61452865600585938 0 143 156 238 18
2.64855098724365234 7.20409488677978516 1.63316476345062256 0 143 156 238 18
2.71255064010620117 7.15819549560546875 1.60769307613372803 0 143 156 238 18
2.64485931396484375 7.18811225891113281 1.59853184223175049 0 143 156 238 18
2.63734865188598633 7.1957244873046875 1.62164545059204102 0 143 156 238 18
3.12070679664611816 7.30010604858398438 1.6015702486038208 0 143 156 238 18
3.12006521224975586 7.36735057830810547 1.62208747863769531 0 143 156 238 18
2.6999354362487793 7.15326023101806641 1.51431691646575928 0 143 156 238 18
2.95005607604980469 7.46812772750854492 1.68206357955932617 0 143 156 238 18
2.92274713516235352 7.52246999740600586 1.71716034412384033 0 143 156 238 18
2.95077753067016602 7.49153470993041992 1.72517907619476318 0 143 156 238 18
3.12558078765869141 7.29767274856567383 1.52605414390563965 0 143 156 238 18
3.12629222869873047 7.31528711318969727 1.55605769157409668 0 143 156 238 18
3.12523508071899414 7.35269308090209961 1.54878950119018555 0 143 156 238 18
3.11649703979492188 7.29328346252441406 1.56492125988006592 0 143 156 238 18
3.13788652420043945 7.32639265060424805 1.52559614181518555 0 143 156 238 18
2.5773165225982666 7.35667610168457031 1.68587994575500488 0 143 156 238 18
2.63518023490905762 7.21846485137939453 1.6397327184677124 0 143 156 238 18
2.59944939613342285 7.30111789703369141 1.65444600582122803 0 143 156 238 18
2.61329245567321777 7.25091075897216797 1.64257097244262695 0 143 156 238 18
2.65062308311462402 7.25200843811035156 1.63919007778167725 0 143 156 238 18
2.61794543266296387 7.19682788848876953 1.6214224100112915 0 143 156 238 18
3.01455092430114746 7.39205741882324219 1.65120112895965576 0 143 156 238 18
2.95341968536376953 7.46602344512939453 1.71104252338409424 0 143 156 238 18
3.05368876457214355 7.31944417953491211 1.67964625358581543 0 143 156 238 18
3.07022857666015625 7.27022266387939453 1.68747901916503906 0 143 156 238 18
3.06453800201416016 7.27203989028930664 1.52861356735229492 0 143 156 238 18
2.9442296028137207 7.22452306747436523 1.57869446277618408 0 143 156 238 18
2.9542689323425293 7.2258148193359375 1.52723705768585205 0 143 156 238 18
2.91311120986938477 7.21012687683105469 1.52601301670074463 0 143 156 238 18
2.95166206359863281 7.17576408386230469 1.72288227081298828 0 143 156 238 18
3.00196218490600586 7.19757366180419922 1.71182787418365479 0 143 156 238 18
3.02463603019714355 7.20627021789550781 1.71700370311737061 0 143 156 238 18
3.11155176162719727 7.3871455192565918 1.55965566635131836 0 143 156 238 18
3.11115097999572754 7.42906665802001953 1.51684629917144775 0 143 156 238 18
3.13018274307250977 7.39001750946044922 1.53149735927581787 0 143 156 238 18
3.14777803421020508 7.36008167266845703 1.51628339290618896 0 143 156 238 18
3.09200763702392578 7.24131011962890625 1.71354007720947266 0 143 156 238 18
3.07226419448852539 7.22647428512573242 1.70421755313873291 0 143 156 238 18
3.07555603981018066 7.43479490280151367 1.56576669216156006 0 143 156 238 18
3.09639167785644531 7.46021747589111328 1.52477765083312988 0 143 156 238 18
3.06134223937988281 7.47165203094482422 1.55093812942504883 0 143 156 238 18
3.06332707405090332 7.49723958969116211 1.53907275199890137 0 143 156 238 18
2.67966818809509277 7.25569772720336914 1.6540217399597168 0 143 156 238 18
2.69447779655456543 7.23401689529418945 1.65314853191375732 0 143 156 238 18
2.70048928260803223 7.22375774383544922 1.67510032653808594 0 143 156 238 18
2.71775507926940918 7.19500589370727539 1.62739443778991699 0 143 156 238 18
2.67467927932739258 7.22938156127929688 1.63728237152099609 0 143 156 238 18
2.93362712860107422 7.2096405029296875 1.61140477657318115 0 143 156 238 18
2.89734482765197754 7.19576120376586914 1.6312335729598999 0 143 156 238 18
2.73705172538757324 7.14520502090454102 1.56474816799163818 0 143 156 238 18
2.78093600273132324 7.16806316375732422 1.51589155197143555 0 143 156 238 18
2.73606300354003906 7.15032386779785156 1.51689791679382324 0 143 156 238 18
2.76053094863891602 7.15381908416748047 1.56804561614990234 0 143 156 238 18
2.70946335792541504 7.15329837799072266 1.58397114276885986 0 143 156 238 18
2.71810770034790039 7.15302562713623047 1.53715670108795166 0 143 156 238 18
2.65743327140808105 7.17036247253417969 1.51859009265899658 0 143 156 238 18
2.67642736434936523 7.17535638809204102 1.54406821727752686 0 143 156 238 18
2.61876654624938965 7.30240917205810547 1.65548813343048096 0 143 156 238 18
2.5819242000579834 7.2940058708190918 1.66120684146881104 0 143 156 238 18
2.60435342788696289 7.33039522171020508 1.67184531688690186 0 143 156 238 18
2.58299112319946289 7.33248996734619141 1.66541051864624023 0 143 156 238 18
2.55583310127258301 7.34952163696289062 1.67911458015441895 0 143 156 238 18
2.6545872688293457 7.28507804870605469 1.68201541900634766 0 143 156 238 18
2.68230962753295898 7.25721311569213867 1.68760216236114502 0 143 156 238 18
2.94898581504821777 7.17985868453979492 1.70539116859436035 0 143 156 238 18
2.91388773918151855 7.18150472640991211 1.68006753921508789 0 143 156 238 18
2.91568493843078613 7.5556340217590332 1.68710601329803467 0 143 156 238 18
2.93956851959228516 7.5979008674621582 1.70557832717895508 0 143 156 238 18
2.92309927940368652 7.52666664123535156 1.68619406223297119 0 143 156 238 18
2.91676044464111328 7.55098867416381836 1.72577345371246338 0 143 156 238 18
2.96022439002990723 7.58247709274291992 1.67656838893890381 0 143 156 238 18
2.92662620544433594 7.56424283981323242 1.72859954833984375 0 143 156 238 18
3.0287935733795166 7.52537012100219727 1.56554591655731201 0 143 156 238 18
3.00313377380371094 7.65168190002441406 1.62891530990600586 0 143 156 238 18
3.00803017616271973 7.643798828125 1.60674083232879639 0 143 156 238 18
2.99920749664306641 7.62129783630371094 1.62124466896057129 0 143 156 238 18
2.99093723297119141 7.59991693496704102 1.6676795482635498 0 143 156 238 18
2.99701738357543945 7.64657783508300781 1.66347360610961914 0 143 156 238 18
3.01894140243530273 7.63908481597900391 1.56974160671234131 0 143 156 238 18
3.00036358833312988 7.65557861328125 1.58131814002990723 0 143 156 238 18
3.00952649116516113 7.62146663665771484 1.56532621383666992 0 143 156 238 18
3.0276482105255127 7.60410785675048828 1.55117356777191162 0 143 156 238 18
3.00283002853393555 7.58063554763793945 1.63873779773712158 0 143 156 238 18
3.00170683860778809 7.57988691329956055 1.62431704998016357 0 143 156 238 18
2.99642777442932129 7.57201528549194336 1.66109514236450195 0 143 156 238 18
2.9821929931640625 7.58009910583496094 1.67841541767120361 0 143 156 238 18
3.01213264465332031 7.51642227172851562 1.65515279769897461 0 143 156 238 18
3.02244210243225098 7.52782726287841797 1.63757693767547607 0 143 156 238 18
2.9410254955291748 7.53125905990600586 1.67030644416809082 0 143 156 238 18
3.00629878044128418 7.63185405731201172 1.67755305767059326 0 143 156 238 18
3.01604437828063965 7.56757688522338867 1.5601273775100708 0 143 156 238 18
3.01758837699890137 7.5816502571105957 1.68220376968383789 0 143 156 238 18
2.91526889801025391 7.59216785430908203 1.69339251518249512 0 143 156 238 18
2.89838886260986328 7.58875846862792969 1.71303701400756836 0 143 156 238 18
3.00566720962524414 7.57779312133789062 1.57642018795013428 0 143 156 238 18
1.25194954872131348 6.52820920944213867 1.33800637722015381 0 143 156 238 18
1.26346790790557861 6.53867387771606445 1.28899776935577393 0 143 156 238 18
1.25820779800415039 6.534820556640625 1.22570538520812988 0 143 156 238 18
1.29715430736541748 6.55463600158691406 1.26922845840454102 0 143 156 238 18
1.35696005821228027 6.57574939727783203 1.32898056507110596 0 143 156 238 18
1.47159993648529053 6.61544704437255859 1.26856791973114014 0 143 156 238 18
1.44296646118164062 6.60472202301025391 1.22816610336303711 0 143 156 238 18
1.36645710468292236 6.57321262359619141 1.24076700210571289 0 143 156 238 18
1.32645189762115479 6.5573430061340332 1.21996939182281494 0 143 156 238 18
1.30967330932617188 6.55066633224487305 1.3358081579208374 0 143 156 238 18
1.39333546161651611 6.58118629455566406 1.23196947574615479 0 143 156 238 18
1.42573142051696777 6.5939030647277832 1.26923632621765137 0 143 156 238 18
1.38435244560241699 6.58150482177734375 1.21526491641998291 0 143 156 238 18
1.49003076553344727 6.62615680694580078 1.33083486557006836 0 143 156 238 18
1.484244704246521 6.62865638732910156 1.35125887393951416 0 143 156 238 18
1.4389033317565918 6.59595251083374023 1.29621648788452148 0 143 156 238 18
1.357399582862854 6.57543134689331055 1.28591036796569824 0 143 156 238 18
1.40757393836975098 6.59263896942138672 1.33329904079437256 0 143 156 238 18
1.44196784496307373 6.607452392578125 1.34365963935852051 0 143 156 238 18
1.43197071552276611 6.59772109985351562 1.33185303211212158 0 143 156 238 18
1.48534142971038818 6.63557291030883789 1.7503502368927002 0 143 156 238 18
1.36284518241882324 6.6090388298034668 1.64903903007507324 0 143 156 238 18
1.43164968490600586 6.59749317169189453 1.67918896675109863 0 143 156 238 18
1.42905902862548828 6.64164209365844727 1.64536046981811523 0 143 156 238 18
1.45526278018951416 6.66565036773681641 1.63485383987426758 0 143 156 238 18
1.48728001117706299 6.61398124694824219 1.67977726459503174 0 143 156 238 18
1.42798364162445068 6.60210895538330078 1.73784768581390381 0 143 156 238 18
1.45782387256622314 6.64060449600219727 1.73856139183044434 0 143 156 238 18
1.45956516265869141 6.60992860794067383 1.72793722152709961 0 143 156 238 18
1.49018323421478271 6.62718439102172852 1.73240852355957031 0 143 156 238 18
1.42619132995605469 6.589447021484375 1.7042689323425293 0 143 156 238 18
1.46947085857391357 6.60551786422729492 1.69662201404571533 0 143 156 238 18
1.30431687831878662 6.56667423248291016 1.66729605197906494 0 143 156 238 18
1.51840305328369141 6.64032936096191406 1.66462433338165283 0 143 156 238 18
1.48646128177642822 6.66973686218261719 1.64473378658294678 0 143 156 238 18
1.38108634948730469 6.5825505256652832 1.6930994987487793 0 143 156 238 18
1.44134950637817383 6.6309814453125 1.73443126678466797 0 143 156 238 18
1.44056665897369385 6.61556577682495117 1.66122817993164062 0 143 156 238 18
1.30573165416717529 6.59225320816040039 1.63469517230987549 0 143 156 238 18
1.3561779260635376 6.58456993103027344 1.67081737518310547 0 143 156 238 18
1.32971739768981934 6.60095834732055664 1.64546191692352295 0 143 156 238 18
1.27400588989257812 6.55989885330200195 1.65504097938537598 0 143 156 238 18
1.72993254661560059 6.70809555053710938 1.33414280414581299 0 143 156 238 18
1.69326460361480713 6.69245719909667969 1.33957135677337646 0 143 156 238 18
1.71207177639007568 6.70654726028442383 1.29325532913208008 0 143 156 238 18
1.63116192817687988 6.80179262161254883 1.44481992721557617 0 143 156 238 18
1.55514442920684814 6.66097640991210938 1.36393928527832031 0 143 156 238 18
1.7561652660369873 6.71815633773803711 1.2902686595916748 0 143 156 238 18
1.81294536590576172 6.7199854850769043 1.36263346672058105 0 143 156 238 18
1.79504001140594482 6.71960735321044922 1.32032895088195801 0 143 156 238 18
1.7595217227935791 6.71602773666381836 1.31843888759613037 0 143 156 238 18
1.85157585144042969 6.72435092926025391 1.30148947238922119 0 143 156 238 18
1.89072680473327637 6.72832536697387695 1.30660092830657959 0 143 156 238 18
1.86052656173706055 6.71804094314575195 1.33445060253143311 0 143 156 238 18
1.89356958866119385 6.72265005111694336 1.33424043655395508 0 143 156 238 18
1.50375103950500488 6.6337285041809082 1.2885277271270752 0 143 156 238 18
1.76585328578948975 6.73667097091674805 1.41960632801055908 0 143 156 238 18
1.79996931552886963 6.72171306610107422 1.48185384273529053 0 143 156 238 18
1.60172402858734131 6.67055797576904297 1.30340015888214111 0 143 156 238 18
1.65619373321533203 6.68260765075683594 1.31899583339691162 0 143 156 238 18
1.64473915100097656 6.683563232421875 1.28836917877197266 0 143 156 238 18
1.60163581371307373 6.6737980842590332 1.34091722965240479 0 143 156 238 18
1.62752664089202881 6.68189048767089844 1.35202205181121826 0 143 156 238 18
1.67895698547363281 6.69127559661865234 1.36547219753265381 0 143 156 238 18
1.71122610569000244 6.7083439826965332 1.37519848346710205 0 143 156 238 18
1.79456150531768799 6.72478866577148438 1.39154648780822754 0 143 156 238 18
1.76332902908325195 6.71796369552612305 1.3654484748840332 0 143 156 238 18
1.74091708660125732 6.75026321411132812 1.43989288806915283 0 143 156 238 18
1.76858007907867432 6.73655080795288086 1.45884263515472412 0 143 156 238 18
1.49427986145019531 6.63427209854125977 1.21885979175567627 0 143 156 238 18
1.58587217330932617 6.66832828521728516 1.22702109813690186 0 143 156 238 18
1.61750614643096924 6.67800331115722656 1.25845861434936523 0 143 156 238 18
1.52430403232574463 6.64309167861938477 1.25531542301177979 0 143 156 238 18
1.65930056571960449 6.70243263244628906 1.38829159736633301 0 143 156 238 18
1.59327495098114014 6.68665599822998047 1.36994421482086182 0 143 156 238 18
1.55614125728607178 6.64849567413330078 1.30626225471496582 0 143 156 238 18
1.5508197546005249 6.64476680755615234 1.33528578281402588 0 143 156 238 18
1.68303871154785156 6.69159126281738281 1.27213597297668457 0 143 156 238 18
1.7124638557434082 6.70350265502929688 1.25791823863983154 0 143 156 238 18
1.70653343200683594 6.7035069465637207 1.22727787494659424 0 143 156 238 18
1.67044925689697266 6.68920087814331055 1.23099279403686523 0 143 156 238 18
1.56947815418243408 6.8181767463684082 1.4450453519821167 0 143 156 238 18
1.83570683002471924 6.72360086441040039 1.45220232009887695 0 143 156 238 18
1.86996793746948242 6.72188997268676758 1.38504683971405029 0 143 156 238 18
1.64011693000793457 6.71873855590820312 1.75880539417266846 0 143 156 238 18
1.67209911346435547 6.7144017219543457 1.7651597261428833 0 143 156 238 18
1.84699201583862305 6.73291635513305664 1.63275647163391113 0 143 156 238 18
1.62466812133789062 6.66034460067749023 1.67973911762237549 0 143 156 238 18
1.5445476770401001 6.65291309356689453 1.75194752216339111 0 143 156 238 18
1.60123598575592041 6.66295528411865234 1.74671220779418945 0 143 156 238 18
1.49951136112213135 6.65326404571533203 1.75953185558319092 0 143 156 238 18
1.56947827339172363 6.66287422180175781 1.75232148170471191 0 143 156 238 18
1.54069721698760986 6.64038753509521484 1.73113298416137695 0 143 156 238 18
1.57798933982849121 6.64293289184570312 1.69373118877410889 0 143 156 238 18
1.79693436622619629 6.71982383728027344 1.62701427936553955 0 143 156 238 18
1.85184013843536377 6.72534894943237305 1.60213267803192139 0 143 156 238 18
1.78793060779571533 6.72583532333374023 1.65918827056884766 0 143 156 238 18
1.86033642292022705 6.7481694221496582 1.65860068798065186 0 143 156 238 18
1.49585449695587158 6.67327260971069336 1.76865339279174805 0 143 156 238 18
1.59372591972351074 6.6860504150390625 1.76233673095703125 0 143 156 238 18
1.57410991191864014 6.69621944427490234 1.76782917976379395 0 143 156 238 18
1.53968703746795654 6.69281148910522461 1.76512837409973145 0 143 156 238 18
1.60052549839019775 6.70812129974365234 1.79070365428924561 0 143 156 238 18
1.5621345043182373 6.68548583984375 1.7550508975982666 0 143 156 238 18
1.66279363632202148 6.71862173080444336 1.79919910430908203 0 143 156 238 18
1.72995734214782715 6.73362588882446289 1.7675626277923584 0 143 156 238 18
1.77822482585906982 6.76017856597900391 1.77872633934020996 0 143 156 238 18
1.73219883441925049 6.76074409484863281 1.84295451641082764 0 143 156 238 18
1.80445146560668945 6.71876049041748047 1.58122515678405762 0 143 156 238 18
1.75215339660644531 6.71515607833862305 1.58724081516265869 0 143 156 238 18
1.63333725929260254 6.72042322158813477 1.79250955581665039 0 143 156 238 18
1.62598645687103271 6.71782875061035156 1.82904922962188721 0 143 156 238 18
1.7732006311416626 6.75136661529541016 1.75378406047821045 0 143 156 238 18
1.7698214054107666 6.73782634735107422 1.73250389099121094 0 143 156 238 18
1.78957593441009521 6.73132705688476562 1.70255434513092041 0 143 156 238 18
1.82217729091644287 6.73967361450195312 1.71582126617431641 0 143 156 238 18
1.81364166736602783 6.72064447402954102 1.52209103107452393 0 143 156 238 18
1.86583614349365234 6.72430324554443359 1.50306570529937744 0 143 156 238 18
1.544181227684021 6.67876052856445312 1.63970446586608887 0 143 156 238 18
1.89049780368804932 6.80667304992675781 1.78054726123809814 0 143 156 238 18
1.88961708545684814 6.79519224166870117 1.74852335453033447 0 143 156 238 18
1.84598863124847412 6.77494668960571289 1.75389719009399414 0 143 156 238 18
1.83330023288726807 6.77831506729125977 1.78429245948791504 0 143 156 238 18
1.58797264099121094 6.67731809616088867 1.64681196212768555 0 143 156 238 18
1.59316408634185791 6.68126344680786133 1.63746166229248047 0 143 156 238 18
1.57897531986236572 6.65210056304931641 1.66428172588348389 0 143 156 238 18
1.66625213623046875 6.6929774284362793 1.63246047496795654 0 143 156 238 18
1.65112137794494629 6.68147611618041992 1.66393947601318359 0 143 156 238 18
1.74276447296142578 6.74614286422729492 1.80529999732971191 0 143 156 238 18
1.80455386638641357 6.77185916900634766 1.80244290828704834 0 143 156 238 18
1.76990485191345215 6.76647472381591797 1.83048033714294434 0 143 156 238 18
1.81637632846832275 6.75912666320800781 1.74790036678314209 0 143 156 238 18
1.76030099391937256 6.71806621551513672 1.56186413764953613 0 143 156 238 18
1.71861851215362549 6.71197223663330078 1.56123936176300049 0 143 156 238 18
1.6599496603012085 6.69536399841308594 1.52878236770629883 0 143 156 238 18
1.66809427738189697 6.68881464004516602 1.57340514659881592 0 143 156 238 18
1.63323378562927246 6.68359613418579102 1.54697966575622559 0 143 156 238 18
1.69113194942474365 6.69598484039306641 1.59783947467803955 0 143 156 238 18
1.75110208988189697 6.70785284042358398 1.6292881965637207 0 143 156 238 18
1.72768723964691162 6.70064449310302734 1.65039253234863281 0 143 156 238 18
1.70299148559570312 6.69671916961669922 1.66815316677093506 0 143 156 238 18
1.66634416580200195 6.74085474014282227 1.84331655502319336 0 143 156 238 18
1.72986280918121338 6.77843570709228516 1.86320829391479492 0 143 156 238 18
1.70122182369232178 6.76289510726928711 1.86073958873748779 0 143 156 238 18
1.9049612283706665 6.75424861907958984 1.62696850299835205 0 143 156 238 18
1.87069594860076904 6.76547336578369141 1.72929215431213379 0 143 156 238 18
1.66461801528930664 6.68196535110473633 1.68415486812591553 0 143 156 238 18
1.63379824161529541 6.68808078765869141 1.75092744827270508 0 143 156 238 18
1.66343939304351807 6.68344688415527344 1.70987999439239502 0 143 156 238 18
1.67699146270751953 6.70177841186523438 1.72759342193603516 0 143 156 238 18
1.61802089214324951 6.65531158447265625 1.70287764072418213 0 143 156 238 18
1.5211794376373291 6.61924505233764648 1.70337522029876709 0 143 156 238 18
1.55245697498321533 6.63583946228027344 1.67893850803375244 0 143 156 238 18
1.7027970552444458 6.69735145568847656 1.70778656005859375 0 143 156 238 18
1.74255406856536865 6.71315479278564453 1.70086753368377686 0 143 156 238 18
1.7031714916229248 6.70850801467895508 1.73559951782226562 0 143 156 238 18
1.98750960826873779 6.75584983825683594 0.241750702261924744 0 143 156 238 18
1.97923779487609863 6.75224637985229492 0.300079613924026489 0 143 156 238 18
2.00221514701843262 6.77259254455566406 0.265130519866943359 0 143 156 238 18
2.43300628662109375 6.94613170623779297 0.191807329654693604 0 143 156 238 18
2.07946944236755371 6.87381839752197266 0.0687607824802398682 0 143 156 238 18
2.1638033390045166 6.81783103942871094 0.395131796598434448 0 143 156 238 18
2.44475364685058594 6.95741987228393555 0.357498735189437866 0 143 156 238 18
2.48674392700195312 7.00913095474243164 0.0578867681324481964 0 143 156 238 18
2.46663689613342285 6.99486064910888672 0.0485069043934345245 0 143 156 238 18
2.5058131217956543 6.95491266250610352 0.227303221821784973 0 143 156 238 18
2.48016190528869629 6.96229410171508789 0.31626439094543457 0 143 156 238 18
2.51958298683166504 6.95278787612915039 0.296887576580047607 0 143 156 238 18
1.97302186489105225 6.84214973449707031 0.059996340423822403 0 143 156 238 18
2.09021115303039551 6.81966829299926758 0.258231282234191895 0 143 156 238 18
2.39908838272094727 6.91308784484863281 0.39531177282333374 0 143 156 238 18
2.20955681800842285 6.91739845275878906 0.0648387148976325989 0 143 156 238 18
2.03940892219543457 6.80787754058837891 0.359657973051071167 0 143 156 238 18
2.06046533584594727 6.81520271301269531 0.326141655445098877 0 143 156 238 18
2.21267533302307129 6.86921215057373047 0.22525903582572937 0 143 156 238 18
2.08544421195983887 6.82517194747924805 0.294580131769180298 0 143 156 238 18
2.03328299522399902 6.79209136962890625 0.269891738891601562 0 143 156 238 18
