ply
format ascii 1.0
element vertex 580
property float x
property float y
property float z
property uchar red
property uchar green
property uchar blue
property uchar alpha
property uint label
end_header
3.83787059783935547 8.08761024475097656 1.85999155044555664 0 125 181 240 16
3.83869028091430664 8.08512401580810547 1.91853666305541992 0 125 181 240 16
3.93087506294250488 8.0845794677734375 1.69823038578033447 0 125 181 240 16
3.95029354095458984 8.08361434936523438 1.72545874118804932 0 125 181 240 16
3.99011135101318359 8.09782505035400391 1.72763955593109131 0 125 181 240 16
4.00969314575195312 8.11834812164306641 1.81556951999664307 0 125 181 240 16
4.02042150497436523 8.12517261505126953 1.76916885375976562 0 125 181 240 16
4.04539108276367188 8.1331939697265625 1.82105159759521484 0 125 181 240 16
4.04925394058227539 8.12564849853515625 1.78990411758422852 0 125 181 240 16
4.00116157531738281 8.11400508880615234 1.77359449863433838 0 125 181 240 16
3.90244913101196289 8.06632900238037109 1.72549676895141602 0 125 181 240 16
3.9307861328125 8.09661865234375 1.87003517150878906 0 125 181 240 16
3.93792033195495605 8.09537124633789062 1.8382335901260376 0 125 181 240 16
3.91104030609130859 8.09864902496337891 1.91722738742828369 0 125 181 240 16
3.9351804256439209 8.09089469909667969 1.88886284828186035 0 125 181 240 16
3.97036957740783691 8.10052585601806641 1.89318978786468506 0 125 181 240 16
3.92934060096740723 8.08948135375976562 1.77778446674346924 0 125 181 240 16
3.99549245834350586 8.10923576354980469 1.79898512363433838 0 125 181 240 16
3.96546292304992676 8.10486030578613281 1.77193939685821533 0 125 181 240 16
3.96281003952026367 8.09993076324462891 1.85434746742248535 0 125 181 240 16
4.12583065032958984 8.12952041625976562 1.76737165451049805 0 125 181 240 16
4.11343288421630859 8.12725925445556641 1.8164823055267334 0 125 181 240 16
3.83238625526428223 8.08686065673828125 1.95532906055450439 0 125 181 240 16
3.84771060943603516 8.08951187133789062 1.96397888660430908 0 125 181 240 16
3.90152072906494141 8.10408878326416016 1.9489436149597168 0 125 181 240 16
3.86897802352905273 8.09335708618164062 1.94462335109710693 0 125 181 240 16
4.12908077239990234 8.13423824310302734 1.70868659019470215 0 125 181 240 16
4.08810281753540039 8.12696266174316406 1.75509262084960938 0 125 181 240 16
4.10087347030639648 8.13043880462646484 1.71200263500213623 0 125 181 240 16
3.89308667182922363 8.07957553863525391 2.03177142143249512 0 125 181 240 16
3.83761096000671387 8.08405113220214844 2.01494979858398438 0 125 181 240 16
3.89135026931762695 8.07929611206054688 1.99151396751403809 0 125 181 240 16
3.92234921455383301 8.09374141693115234 2.00551557540893555 0 125 181 240 16
3.84839677810668945 8.08495903015136719 1.76351022720336914 0 125 181 240 16
3.90611410140991211 8.07883548736572266 1.75443780422210693 0 125 181 240 16
3.86112809181213379 8.08299541473388672 1.8035658597946167 0 125 181 240 16
3.89866375923156738 8.07956123352050781 1.80197262763977051 0 125 181 240 16
3.94179081916809082 8.12723827362060547 1.94951856136322021 0 125 181 240 16
3.94548153877258301 8.10292625427246094 1.91521525382995605 0 125 181 240 16
3.97814273834228516 8.11887931823730469 1.98874008655548096 0 125 181 240 16
3.97207903861999512 8.13189125061035156 1.96742033958435059 0 125 181 240 16
3.9055640697479248 8.09130573272705078 1.97477972507476807 0 125 181 240 16
3.93854713439941406 8.11475086212158203 1.96839261054992676 0 125 181 240 16
3.97886085510253906 8.13888645172119141 1.94387483596801758 0 125 181 240 16
3.94833183288574219 8.09626579284667969 1.98441839218139648 0 125 181 240 16
3.97609305381774902 8.09239768981933594 1.99675309658050537 0 125 181 240 16
4.05233001708984375 8.13450241088867188 1.72058367729187012 0 125 181 240 16
4.00339603424072266 8.10431480407714844 1.70039355754852295 0 125 181 240 16
4.00344133377075195 8.1027374267578125 1.74249553680419922 0 125 181 240 16
4.03740644454956055 8.12549781799316406 1.74506711959838867 0 125 181 240 16
4.05497550964355469 8.12763690948486328 1.70037257671356201 0 125 181 240 16
3.88611078262329102 8.08005905151367188 1.89945888519287109 0 125 181 240 16
3.90371298789978027 8.07761955261230469 1.87414801120758057 0 125 181 240 16
3.92294430732727051 8.08148193359375 2.03933477401733398 0 125 181 240 16
3.95981073379516602 8.09369754791259766 2.01175451278686523 0 125 181 240 16
3.97519421577453613 8.10560131072998047 2.02244138717651367 0 125 181 240 16
4.00528812408447266 8.10467910766601562 1.88097381591796875 0 125 181 240 16
4.00611543655395508 8.12024497985839844 1.85854566097259521 0 125 181 240 16
4.00828790664672852 8.15498733520507812 1.96626377105712891 0 125 181 240 16
4.01812839508056641 8.15811634063720703 1.94814562797546387 0 125 181 240 16
3.8257133960723877 8.07400321960449219 1.89152383804321289 0 125 181 240 16
3.71962070465087891 7.97711753845214844 1.84783101081848145 0 125 181 240 16
3.73767876625061035 7.98648405075073242 1.8720020055770874 0 125 181 240 16
3.70145249366760254 7.98134040832519531 1.90217387676239014 0 125 181 240 16
3.80465006828308105 8.06676006317138672 1.93363618850708008 0 125 181 240 16
3.74692296981811523 8.00302696228027344 1.92377865314483643 0 125 181 240 16
3.83440685272216797 8.06196880340576172 1.72953689098358154 0 125 181 240 16
3.64824438095092773 7.97758293151855469 1.80100166797637939 0 125 181 240 16
3.61693406105041504 8.00064373016357422 1.75799870491027832 0 125 181 240 16
3.63293933868408203 7.98126792907714844 1.7909996509552002 0 125 181 240 16
3.64135599136352539 7.97987127304077148 1.74702608585357666 0 125 181 240 16
3.63252925872802734 7.98900508880615234 1.81737005710601807 0 125 181 240 16
3.63807106018066406 7.98194694519042969 1.8383636474609375 0 125 181 240 16
3.78089237213134766 8.00549888610839844 1.83352005481719971 0 125 181 240 16
3.8134152889251709 8.03995800018310547 1.83728218078613281 0 125 181 240 16
3.79895496368408203 8.02045440673828125 1.7671276330947876 0 125 181 240 16
3.82575440406799316 8.04867362976074219 1.81649672985076904 0 125 181 240 16
3.8273775577545166 8.04969310760498047 1.76773750782012939 0 125 181 240 16
3.60219812393188477 7.94767427444458008 1.89609611034393311 0 125 181 240 16
3.61907744407653809 7.95268535614013672 1.88861763477325439 0 125 181 240 16
3.63240647315979004 7.97550010681152344 1.87566840648651123 0 125 181 240 16
3.63827657699584961 7.97805404663085938 1.90061676502227783 0 125 181 240 16
3.66301774978637695 7.9784088134765625 1.86225950717926025 0 125 181 240 16
3.61998438835144043 7.94911718368530273 1.91959190368652344 0 125 181 240 16
3.69948697090148926 7.97179651260375977 1.68010854721069336 0 125 181 240 16
3.62625217437744141 7.96768617630004883 1.70462179183959961 0 125 181 240 16
3.61026263236999512 7.97615575790405273 1.7361675500869751 0 125 181 240 16
3.61403059959411621 7.99617815017700195 1.87109100818634033 0 125 181 240 16
3.75037384033203125 7.98617315292358398 1.74360859394073486 0 125 181 240 16
3.71875381469726562 7.98334598541259766 1.75789141654968262 0 125 181 240 16
3.74327325820922852 7.98720407485961914 1.79170393943786621 0 125 181 240 16
3.71414685249328613 7.9793086051940918 1.8225325345993042 0 125 181 240 16
3.75126814842224121 7.98809289932250977 1.83592772483825684 0 125 181 240 16
3.68512272834777832 7.98153924942016602 1.76883995532989502 0 125 181 240 16
3.70645809173583984 7.97654342651367188 1.79821288585662842 0 125 181 240 16
3.61559462547302246 8.00448989868164062 1.83600914478302002 0 125 181 240 16
3.83448171615600586 8.07631587982177734 1.77321088314056396 0 125 181 240 16
3.8365778923034668 8.07752037048339844 1.80548524856567383 0 125 181 240 16
3.83346962928771973 8.08361721038818359 1.83228957653045654 0 125 181 240 16
3.82145118713378906 8.05228424072265625 1.87397563457489014 0 125 181 240 16
3.79564547538757324 8.03280544281005859 1.85730421543121338 0 125 181 240 16
3.77474594116210938 8.00874233245849609 1.87141036987304688 0 125 181 240 16
3.74474072456359863 7.98629188537597656 1.89228701591491699 0 125 181 240 16
3.79319167137145996 8.03783798217773438 1.90563499927520752 0 125 181 240 16
3.78064084053039551 8.00443077087402344 1.78999948501586914 0 125 181 240 16
3.65658712387084961 7.97093629837036133 1.69507992267608643 0 125 181 240 16
3.70757913589477539 7.9724578857421875 1.71270263195037842 0 125 181 240 16
3.73710274696350098 7.96958017349243164 1.68336033821105957 0 125 181 240 16
3.66076540946960449 7.96750879287719727 1.71606600284576416 0 125 181 240 16
3.6892855167388916 7.97920608520507812 1.73635232448577881 0 125 181 240 16
3.62557554244995117 7.97128820419311523 1.91676211357116699 0 125 181 240 16
3.65592479705810547 7.97828531265258789 1.9253770112991333 0 125 181 240 16
3.78451323509216309 8.00443172454833984 1.7436826229095459 0 125 181 240 16
3.81448864936828613 8.02842330932617188 1.72718322277069092 0 125 181 240 16
3.77516031265258789 7.98902368545532227 1.71328532695770264 0 125 181 240 16
3.79998064041137695 8.00815200805664062 1.70696914196014404 0 125 181 240 16
3.77046513557434082 7.98681306838989258 1.68411505222320557 0 125 181 240 16
3.81783032417297363 8.02867412567138672 1.69119548797607422 0 125 181 240 16
3.80155348777770996 8.07006168365478516 1.95040428638458252 0 125 181 240 16
3.77855110168457031 8.03862190246582031 1.9528428316116333 0 125 181 240 16
3.787200927734375 8.0389251708984375 1.97347593307495117 0 125 181 240 16
3.76776576042175293 8.014984130859375 1.98324072360992432 0 125 181 240 16
3.76913642883300781 7.98528814315795898 2.14748501777648926 0 125 181 240 16
3.6248323917388916 7.98620319366455078 1.90415358543395996 0 125 181 240 16
3.61504650115966797 7.99354219436645508 1.87577652931213379 0 125 181 240 16
3.71706461906433105 7.95747995376586914 2.12704062461853027 0 125 181 240 16
3.76409435272216797 8.00019550323486328 2.04743838310241699 0 125 181 240 16
3.70852160453796387 7.9608912467956543 2.10823321342468262 0 125 181 240 16
3.75394845008850098 7.97329235076904297 2.12299180030822754 0 125 181 240 16
3.71730780601501465 7.97035551071166992 2.15368247032165527 0 125 181 240 16
3.61458873748779297 7.99989223480224609 1.92892670631408691 0 125 181 240 16
3.74517178535461426 8.00314235687255859 1.94059169292449951 0 125 181 240 16
3.60499882698059082 8.00146007537841797 2.00730109214782715 0 125 181 240 16
3.65841388702392578 7.97197961807250977 2.04462003707885742 0 125 181 240 16
3.61635184288024902 7.99365139007568359 2.04257702827453613 0 125 181 240 16
3.6370542049407959 7.97057771682739258 1.99281740188598633 0 125 181 240 16
3.62517690658569336 7.97702121734619141 1.97646331787109375 0 125 181 240 16
3.61893892288208008 7.96208381652832031 2.06888866424560547 0 125 181 240 16
3.62427854537963867 7.96710443496704102 2.01615667343139648 0 125 181 240 16
3.67210936546325684 7.97672033309936523 2.01901602745056152 0 125 181 240 16
3.69646644592285156 7.97041654586791992 2.07149910926818848 0 125 181 240 16
3.67794680595397949 7.98158121109008789 1.94289398193359375 0 125 181 240 16
3.7028810977935791 7.9730076789855957 2.00636625289916992 0 125 181 240 16
3.74117922782897949 7.98673057556152344 1.96421229839324951 0 125 181 240 16
3.71365547180175781 7.97262763977050781 1.97419631481170654 0 125 181 240 16
3.79182577133178711 7.98856735229492188 2.12404656410217285 0 125 181 240 16
3.81834101676940918 8.05096244812011719 1.99918293952941895 0 125 181 240 16
3.78542017936706543 8.03327655792236328 2.02876782417297363 0 125 181 240 16
3.8286283016204834 8.07675457000732422 2.03734135627746582 0 125 181 240 16
3.81616973876953125 8.05072307586669922 2.03590679168701172 0 125 181 240 16
3.80754184722900391 8.02505970001220703 2.05970239639282227 0 125 181 240 16
3.75815320014953613 7.98674869537353516 2.0796816349029541 0 125 181 240 16
3.60628819465637207 8.00137042999267578 2.11050748825073242 0 125 181 240 16
3.60456514358520508 7.99869823455810547 2.0870814323425293 0 125 181 240 16
3.82169866561889648 8.07378292083740234 1.98221099376678467 0 125 181 240 16
3.84201335906982422 8.03149890899658203 2.07013511657714844 0 125 181 240 16
3.80015444755554199 8.00250244140625 2.08556461334228516 0 125 181 240 16
3.82959461212158203 8.00572395324707031 2.08895301818847656 0 125 181 240 16
3.60509228706359863 8.00318431854248047 1.9577869176864624 0 125 181 240 16
3.61700296401977539 7.99812555313110352 1.96374082565307617 0 125 181 240 16
3.67528319358825684 7.9765629768371582 1.99395763874053955 0 125 181 240 16
3.63037538528442383 7.9765772819519043 1.94956004619598389 0 125 181 240 16
3.61176085472106934 7.97763776779174805 2.10902500152587891 0 125 181 240 16
3.61679649353027344 7.96498346328735352 2.08375310897827148 0 125 181 240 16
3.61610698699951172 7.98109674453735352 2.06861495971679688 0 125 181 240 16
3.72985100746154785 7.97171974182128906 2.07039046287536621 0 125 181 240 16
3.73182392120361328 7.9771418571472168 2.00437164306640625 0 125 181 240 16
3.70877814292907715 7.96466255187988281 2.03833365440368652 0 125 181 240 16
3.74154829978942871 7.97902154922485352 2.04394245147705078 0 125 181 240 16
3.75508570671081543 8.00006484985351562 2.02642464637756348 0 125 181 240 16
4.27853775024414062 8.21772956848144531 1.71569669246673584 0 125 181 240 16
4.26007223129272461 8.17605018615722656 1.67265605926513672 0 125 181 240 16
4.30334949493408203 8.17383575439453125 1.6812518835067749 0 125 181 240 16
4.24683856964111328 8.19669437408447266 1.6989285945892334 0 125 181 240 16
4.30725717544555664 8.22725200653076172 1.71714365482330322 0 125 181 240 16
4.21613550186157227 8.18490314483642578 1.68908417224884033 0 125 181 240 16
4.45156764984130859 8.22035598754882812 1.67507708072662354 0 125 181 240 16
4.42049026489257812 8.22565746307373047 1.6896204948425293 0 125 181 240 16
4.40675878524780273 8.40088844299316406 1.76466000080108643 0 125 181 240 16
4.39520835876464844 8.33034706115722656 1.76004087924957275 0 125 181 240 16
4.47174215316772461 8.24042415618896484 1.68711376190185547 0 125 181 240 16
4.48847579956054688 8.30644607543945312 1.72029149532318115 0 125 181 240 16
4.55644083023071289 8.26062870025634766 1.68046116828918457 0 125 181 240 16
4.48738241195678711 8.26531314849853516 1.69924211502075195 0 125 181 240 16
4.16239166259765625 8.19607257843017578 1.70826995372772217 0 125 181 240 16
4.2002253532409668 8.15182781219482422 1.66734898090362549 0 125 181 240 16
4.3157649040222168 8.15882301330566406 1.65584647655487061 0 125 181 240 16
4.26780319213867188 8.1667633056640625 1.65153443813323975 0 125 181 240 16
4.53621435165405273 8.35295486450195312 1.75536465644836426 0 125 181 240 16
4.36140251159667969 8.18446445465087891 1.6713794469833374 0 125 181 240 16
4.36167287826538086 8.201751708984375 1.68596887588500977 0 125 181 240 16
4.43908500671386719 8.28899478912353516 1.71980249881744385 0 125 181 240 16
4.46259975433349609 8.31992626190185547 1.73653626441955566 0 125 181 240 16
4.42721128463745117 8.30439376831054688 1.73766732215881348 0 125 181 240 16
4.35796642303466797 8.2529754638671875 1.71568012237548828 0 125 181 240 16
4.3823094367980957 8.28423404693603516 1.72594094276428223 0 125 181 240 16
4.39244413375854492 8.30139064788818359 1.76475048065185547 0 125 181 240 16
4.35459804534912109 8.27082347869873047 1.73098564147949219 0 125 181 240 16
4.45325660705566406 8.39419269561767578 1.77099382877349854 0 125 181 240 16
4.44536590576171875 8.36077308654785156 1.75934195518493652 0 125 181 240 16
4.4232935905456543 8.33160114288330078 1.75340116024017334 0 125 181 240 16
4.48631191253662109 8.33628368377685547 1.75507605075836182 0 125 181 240 16
4.48293972015380859 8.35818576812744141 1.76156961917877197 0 125 181 240 16
4.8366398811340332 8.35612773895263672 1.68227946758270264 0 125 181 240 16
4.83649969100952148 8.38455486297607422 1.71624469757080078 0 125 181 240 16
5.03975582122802734 8.48279857635498047 1.74739754199981689 0 125 181 240 16
4.91818857192993164 8.37264442443847656 1.6488875150680542 0 125 181 240 16
5.20127058029174805 8.53134822845458984 1.73127424716949463 0 125 181 240 16
5.21947622299194336 8.51723289489746094 1.70817470550537109 0 125 181 240 16
5.09456300735473633 8.44768428802490234 1.68153202533721924 0 125 181 240 16
5.07265996932983398 8.46720314025878906 1.7310408353805542 0 125 181 240 16
5.05513715744018555 8.45725822448730469 1.72004187107086182 0 125 181 240 16
4.95032501220703125 8.48836994171142578 1.82055866718292236 0 125 181 240 16
4.94477081298828125 8.48064994812011719 1.84601330757141113 0 125 181 240 16
4.88595724105834961 8.43414115905761719 1.77035009860992432 0 125 181 240 16
4.91891860961914062 8.44236469268798828 1.77242374420166016 0 125 181 240 16
4.91972875595092773 8.45440864562988281 1.805076003074646 0 125 181 240 16
4.88754701614379883 8.44320201873779297 1.84893918037414551 0 125 181 240 16
5.01195955276489258 8.41126632690429688 1.65161240100860596 0 125 181 240 16
4.65386486053466797 8.280487060546875 1.65318787097930908 0 125 181 240 16
4.6930999755859375 8.28912639617919922 1.63470351696014404 0 125 181 240 16
4.66486597061157227 8.29038238525390625 1.66935336589813232 0 125 181 240 16
4.92638778686523438 8.46582221984863281 1.94709515571594238 0 125 181 240 16
4.94345951080322266 8.48307228088378906 1.92924416065216064 0 125 181 240 16
4.81207609176635742 8.39520931243896484 1.80340123176574707 0 125 181 240 16
4.80955743789672852 8.39694499969482422 1.77703487873077393 0 125 181 240 16
4.595062255859375 8.26525783538818359 1.66752457618713379 0 125 181 240 16
4.57971429824829102 8.29255199432373047 1.69750845432281494 0 125 181 240 16
4.64164543151855469 8.30242156982421875 1.69027841091156006 0 125 181 240 16
4.66970300674438477 8.33630752563476562 1.73632049560546875 0 125 181 240 16
4.72373294830322266 8.3506317138671875 1.73735141754150391 0 125 181 240 16
4.7007288932800293 8.32679653167724609 1.70308494567871094 0 125 181 240 16
4.64863014221191406 8.33361053466796875 1.71739697456359863 0 125 181 240 16
4.76790142059326172 8.39708137512207031 1.87918460369110107 0 125 181 240 16
4.80317783355712891 8.41097831726074219 1.88388895988464355 0 125 181 240 16
4.76855707168579102 8.42605304718017578 1.96658658981323242 0 125 181 240 16
4.7740325927734375 8.40088748931884766 1.93035328388214111 0 125 181 240 16
4.73833036422729492 8.42064666748046875 1.97237014770507812 0 125 181 240 16
4.5024561882019043 8.23317623138427734 1.66934013366699219 0 125 181 240 16
4.86822175979614258 8.35319709777832031 1.64592325687408447 0 125 181 240 16
4.74045228958129883 8.37689685821533203 1.78501236438751221 0 125 181 240 16
4.77316999435424805 8.38181686401367188 1.81219768524169922 0 125 181 240 16
4.74116706848144531 8.39206790924072266 1.82079744338989258 0 125 181 240 16
4.9323430061340332 8.39217281341552734 1.68681800365447998 0 125 181 240 16
4.79306364059448242 8.32581996917724609 1.66095101833343506 0 125 181 240 16
5.18926668167114258 8.47360897064208984 1.66080188751220703 0 125 181 240 16
5.22850131988525391 8.48949050903320312 1.66634571552276611 0 125 181 240 16
5.25937461853027344 8.48888778686523438 1.648673415184021 0 125 181 240 16
4.59699106216430664 8.37453651428222656 1.75524222850799561 0 125 181 240 16
4.5555419921875 8.32071113586425781 1.71762526035308838 0 125 181 240 16
4.548980712890625 8.341400146484375 1.73708093166351318 0 125 181 240 16
4.60804986953735352 8.35821342468261719 1.72882294654846191 0 125 181 240 16
4.67448806762695312 8.31191921234130859 1.69597375392913818 0 125 181 240 16
4.9223332405090332 8.45002937316894531 1.83441543579101562 0 125 181 240 16
4.8698115348815918 8.43426513671875 1.91144418716430664 0 125 181 240 16
4.93746280670166016 8.47613620758056641 1.87616288661956787 0 125 181 240 16
4.92218780517578125 8.45559597015380859 1.91277801990509033 0 125 181 240 16
4.73657798767089844 8.39706611633300781 1.93016219139099121 0 125 181 240 16
4.83217620849609375 8.41491603851318359 1.77580177783966064 0 125 181 240 16
4.88494110107421875 8.43958854675292969 1.80485653877258301 0 125 181 240 16
4.80971813201904297 8.40323734283447266 1.84414541721343994 0 125 181 240 16
4.83388423919677734 8.40037059783935547 1.74033117294311523 0 125 181 240 16
4.83700227737426758 8.42194175720214844 1.81543076038360596 0 125 181 240 16
4.81222343444824219 8.3854522705078125 1.73679471015930176 0 125 181 240 16
4.7835545539855957 8.35092639923095703 1.70724999904632568 0 125 181 240 16
4.76992893218994141 8.36092376708984375 1.72708523273468018 0 125 181 240 16
4.76062917709350586 8.37569141387939453 1.77110671997070312 0 125 181 240 16
4.97272205352783203 8.41362094879150391 1.69106030464172363 0 125 181 240 16
5.04527521133422852 8.4311065673828125 1.67894315719604492 0 125 181 240 16
4.99080038070678711 8.45679855346679688 1.73399662971496582 0 125 181 240 16
5.01511716842651367 8.43871116638183594 1.70636856555938721 0 125 181 240 16
4.95132923126220703 8.44196796417236328 1.73465275764465332 0 125 181 240 16
4.8096771240234375 8.43970775604248047 1.9732363224029541 0 125 181 240 16
4.80566692352294922 8.41369533538818359 1.93515396118164062 0 125 181 240 16
4.83394336700439453 8.44614982604980469 1.9618915319442749 0 125 181 240 16
4.86188840866088867 8.43843364715576172 1.94394457340240479 0 125 181 240 16
4.76418447494506836 8.32170295715332031 1.67994248867034912 0 125 181 240 16
4.75018501281738281 8.30484676361083984 1.6389923095703125 0 125 181 240 16
4.70074892044067383 8.30635261535644531 1.6715627908706665 0 125 181 240 16
5.09396696090698242 8.50921344757080078 1.75494861602783203 0 125 181 240 16
4.82898378372192383 8.4195404052734375 1.8700566291809082 0 125 181 240 16
4.88897705078125 8.44251441955566406 1.88164854049682617 0 125 181 240 16
4.84488821029663086 8.424713134765625 1.91529285907745361 0 125 181 240 16
4.85235309600830078 8.43015670776367188 1.85362207889556885 0 125 181 240 16
4.9372401237487793 8.4051055908203125 1.70080149173736572 0 125 181 240 16
4.89962100982666016 8.41993618011474609 1.72717201709747314 0 125 181 240 16
5.10134172439575195 8.48164939880371094 1.71862208843231201 0 125 181 240 16
5.18520498275756836 8.498291015625 1.69851458072662354 0 125 181 240 16
5.14629030227661133 8.50928211212158203 1.72326183319091797 0 125 181 240 16
5.14423370361328125 8.46996498107910156 1.69160914421081543 0 125 181 240 16
4.15533590316772461 8.18938064575195312 1.82947218418121338 0 125 181 240 16
4.1633000373840332 8.20935344696044922 1.82910776138305664 0 125 181 240 16
4.14556598663330078 8.15051078796386719 1.93609893321990967 0 125 181 240 16
4.08519077301025391 8.12348461151123047 1.96360087394714355 0 125 181 240 16
4.11932754516601562 8.129669189453125 1.9679642915725708 0 125 181 240 16
4.11873483657836914 8.1268768310546875 1.93407142162322998 0 125 181 240 16
4.13906574249267578 8.13988876342773438 1.85877585411071777 0 125 181 240 16
4.15243911743164062 8.16299057006835938 1.83047366142272949 0 125 181 240 16
4.09157657623291016 8.12732219696044922 1.87047445774078369 0 125 181 240 16
4.13359451293945312 8.13726902008056641 1.90184295177459717 0 125 181 240 16
4.14302682876586914 8.14900779724121094 1.89063215255737305 0 125 181 240 16
4.08658504486083984 8.12505626678466797 1.92526888847351074 0 125 181 240 16
4.15335702896118164 8.21119499206542969 1.89028215408325195 0 125 181 240 16
4.14013004302978516 8.14186191558837891 1.81525421142578125 0 125 181 240 16
4.15513515472412109 8.20073127746582031 1.74839305877685547 0 125 181 240 16
4.1529841423034668 8.19500827789306641 1.71901786327362061 0 125 181 240 16
4.14801549911499023 8.15660190582275391 1.71379327774047852 0 125 181 240 16
4.15337038040161133 8.20269870758056641 1.93529438972473145 0 125 181 240 16
4.14924335479736328 8.17066287994384766 1.89070892333984375 0 125 181 240 16
4.15243434906005859 8.19679641723632812 1.97753310203552246 0 125 181 240 16
4.14683198928833008 8.16046142578125 1.97623777389526367 0 125 181 240 16
4.12075424194335938 8.12722587585449219 2.00560855865478516 0 125 181 240 16
4.138427734375 8.14466953277587891 1.97819089889526367 0 125 181 240 16
4.09224081039428711 8.12151908874511719 2.01418805122375488 0 125 181 240 16
4.08483314514160156 8.1187896728515625 2.03938913345336914 0 125 181 240 16
4.09227991104125977 8.11604976654052734 2.07032418251037598 0 125 181 240 16
4.15076398849487305 8.15141677856445312 1.75591981410980225 0 125 181 240 16
4.0523829460144043 8.13381576538085938 1.84375321865081787 0 125 181 240 16
4.04362154006958008 8.13224029541015625 1.86507654190063477 0 125 181 240 16
4.25455808639526367 8.12149333953857422 1.97305285930633545 0 125 181 240 16
4.19317817687988281 8.18903923034667969 2.01167392730712891 0 125 181 240 16
4.16718339920043945 8.21119022369384766 2.03808331489562988 0 125 181 240 16
4.23955869674682617 8.14582443237304688 2.07425522804260254 0 125 181 240 16
4.18149852752685547 8.19099140167236328 2.06326580047607422 0 125 181 240 16
4.21968364715576172 8.16076946258544922 2.03299546241760254 0 125 181 240 16
4.2412872314453125 8.14050006866455078 2.03578829765319824 0 125 181 240 16
4.26330995559692383 8.10617256164550781 2.12409830093383789 0 125 181 240 16
4.27786684036254883 8.12080669403076172 2.13885259628295898 0 125 181 240 16
4.26841211318969727 8.13885402679443359 2.07792258262634277 0 125 181 240 16
4.29048013687133789 8.13139533996582031 2.08273696899414062 0 125 181 240 16
4.27030038833618164 8.11449337005615234 2.09449601173400879 0 125 181 240 16
4.23487949371337891 8.13465213775634766 2.14343857765197754 0 125 181 240 16
4.23240184783935547 8.14953041076660156 2.15992283821105957 0 125 181 240 16
4.24043130874633789 8.13897228240966797 2.09886550903320312 0 125 181 240 16
4.25372743606567383 8.17738819122314453 2.17203354835510254 0 125 181 240 16
4.27739191055297852 8.16667938232421875 2.16105556488037109 0 125 181 240 16
4.26645469665527344 8.14444637298583984 2.04492020606994629 0 125 181 240 16
4.25196361541748047 8.12555313110351562 2.00055098533630371 0 125 181 240 16
4.17903900146484375 8.19782829284667969 1.97884869575500488 0 125 181 240 16
4.19437980651855469 8.16844463348388672 2.10068058967590332 0 125 181 240 16
4.22383975982666016 8.15402412414550781 1.97241580486297607 0 125 181 240 16
4.28023386001586914 8.14607810974121094 2.14707684516906738 0 125 181 240 16
4.29856491088867188 8.16762828826904297 2.06204986572265625 0 125 181 240 16
4.25152254104614258 8.2100830078125 1.72296297550201416 0 125 181 240 16
4.28509140014648438 8.18808269500732422 1.74613749980926514 0 125 181 240 16
4.26928138732910156 8.21251583099365234 1.73571932315826416 0 125 181 240 16
4.29915428161621094 8.19978237152099609 1.74491345882415771 0 125 181 240 16
4.31177043914794922 8.21979904174804688 1.75725412368774414 0 125 181 240 16
4.23353433609008789 8.15982532501220703 1.74648880958557129 0 125 181 240 16
4.21856689453125 8.16770172119140625 1.8099902868270874 0 125 181 240 16
4.19277286529541016 8.20316123962402344 1.79552459716796875 0 125 181 240 16
4.16827058792114258 8.22247695922851562 1.76833665370941162 0 125 181 240 16
4.23634529113769531 8.15313339233398438 1.78188979625701904 0 125 181 240 16
4.38733291625976562 8.32520198822021484 1.77611541748046875 0 125 181 240 16
4.38090801239013672 8.33772659301757812 1.82985866069793701 0 125 181 240 16
4.27289772033691406 8.14882946014404297 1.74297630786895752 0 125 181 240 16
4.39676046371459961 8.30436515808105469 1.79471147060394287 0 125 181 240 16
4.36374044418334961 8.29857540130615234 1.84601283073425293 0 125 181 240 16
4.37639474868774414 8.29542255401611328 1.80666089057922363 0 125 181 240 16
4.35033464431762695 8.296478271484375 1.76576650142669678 0 125 181 240 16
4.3735194206237793 8.29227256774902344 2.08445119857788086 0 125 181 240 16
4.17999362945556641 8.20917510986328125 1.82805764675140381 0 125 181 240 16
4.21191787719726562 8.18359851837158203 1.88786172866821289 0 125 181 240 16
4.16701841354370117 8.22756481170654297 1.88573682308197021 0 125 181 240 16
4.19742155075073242 8.20266151428222656 1.92755818367004395 0 125 181 240 16
4.36478710174560547 8.28951263427734375 2.06156253814697266 0 125 181 240 16
4.38934040069580078 8.29638099670410156 2.03663778305053711 0 125 181 240 16
4.35997629165649414 8.29236125946044922 2.00018191337585449 0 125 181 240 16
4.23609828948974609 8.15533351898193359 1.88086354732513428 0 125 181 240 16
4.2521510124206543 8.13993263244628906 1.87454617023468018 0 125 181 240 16
4.23410415649414062 8.18314075469970703 1.73493349552154541 0 125 181 240 16
4.21974658966064453 8.19943523406982422 1.7183074951171875 0 125 181 240 16
4.19183111190795898 8.20280933380126953 1.74909603595733643 0 125 181 240 16
4.18425416946411133 8.20548248291015625 1.72051787376403809 0 125 181 240 16
4.2449030876159668 8.18369102478027344 1.97604334354400635 0 125 181 240 16
4.24350786209106445 8.19205760955810547 1.92231249809265137 0 125 181 240 16
4.27267265319824219 8.22596359252929688 1.94054722785949707 0 125 181 240 16
4.26326417922973633 8.15176010131835938 1.97670316696166992 0 125 181 240 16
4.2675938606262207 8.22988700866699219 1.95454061031341553 0 125 181 240 16
4.29094505310058594 8.20986270904541016 1.92308390140533447 0 125 181 240 16
4.25096797943115234 8.21641254425048828 1.96435272693634033 0 125 181 240 16
4.28004360198974609 8.20251178741455078 1.97470080852508545 0 125 181 240 16
4.30315589904785156 8.23631954193115234 1.7374342679977417 0 125 181 240 16
4.27827358245849609 8.18263530731201172 1.8160480260848999 0 125 181 240 16
4.26530075073242188 8.16842746734619141 1.81466400623321533 0 125 181 240 16
4.27960205078125 8.15821456909179688 1.79520225524902344 0 125 181 240 16
4.23494386672973633 8.14683437347412109 1.96606719493865967 0 125 181 240 16
4.19741916656494141 8.19841194152832031 1.96489393711090088 0 125 181 240 16
4.17075109481811523 8.21718502044677734 1.90802383422851562 0 125 181 240 16
4.21510934829711914 8.21240520477294922 1.94501686096191406 0 125 181 240 16
4.16516017913818359 8.21448612213134766 1.94082045555114746 0 125 181 240 16
4.2010350227355957 8.21228599548339844 1.95451986789703369 0 125 181 240 16
4.16508722305297852 8.20345687866210938 1.9764864444732666 0 125 181 240 16
4.39172935485839844 8.30095291137695312 2.00218105316162109 0 125 181 240 16
4.39259004592895508 8.29421901702880859 1.96679270267486572 0 125 181 240 16
4.45402145385742188 8.32094001770019531 1.9319157600402832 0 125 181 240 16
4.42062950134277344 8.31156635284423828 1.94076263904571533 0 125 181 240 16
4.34612655639648438 8.27484893798828125 1.7535635232925415 0 125 181 240 16
4.44977045059204102 8.32431125640869141 1.96189999580383301 0 125 181 240 16
4.44235992431640625 8.32032489776611328 1.99496877193450928 0 125 181 240 16
4.35718441009521484 8.28821372985839844 1.95832765102386475 0 125 181 240 16
4.34714889526367188 8.27736663818359375 1.91589915752410889 0 125 181 240 16
4.3280644416809082 8.27898406982421875 1.95149946212768555 0 125 181 240 16
4.30253887176513672 8.25394916534423828 1.95260775089263916 0 125 181 240 16
4.34313583374023438 8.28249359130859375 1.98276662826538086 0 125 181 240 16
4.26044750213623047 8.13070487976074219 1.75414347648620605 0 125 181 240 16
4.22539377212524414 8.16437053680419922 1.84629034996032715 0 125 181 240 16
4.25391578674316406 8.13462448120117188 1.8073728084564209 0 125 181 240 16
4.26400184631347656 8.14000320434570312 1.78839647769927979 0 125 181 240 16
4.31546306610107422 8.23166942596435547 1.91032528877258301 0 125 181 240 16
4.36865758895874023 8.29559421539306641 1.91659581661224365 0 125 181 240 16
4.39569902420043945 8.29861736297607422 1.92431855201721191 0 125 181 240 16
4.38966274261474609 8.30263137817382812 1.83677589893341064 0 125 181 240 16
4.32344961166381836 8.25230598449707031 1.92931878566741943 0 125 181 240 16
4.30051088333129883 8.25330448150634766 1.97925961017608643 0 125 181 240 16
4.28809785842895508 8.23484039306640625 1.96928918361663818 0 125 181 240 16
4.49524259567260742 8.35000133514404297 1.94786381721496582 0 125 181 240 16
4.49709129333496094 8.34418296813964844 1.93579411506652832 0 125 181 240 16
4.48267459869384766 8.33618831634521484 1.98941910266876221 0 125 181 240 16
4.28789663314819336 8.19160175323486328 1.90154743194580078 0 125 181 240 16
4.26262426376342773 8.18055438995361328 1.89741730690002441 0 125 181 240 16
4.2344965934753418 8.17178153991699219 1.90208053588867188 0 125 181 240 16
4.54056692123413086 8.35860252380371094 1.99171149730682373 0 125 181 240 16
4.55619001388549805 8.36753559112548828 1.96426117420196533 0 125 181 240 16
4.54396390914916992 8.36035728454589844 1.94030272960662842 0 125 181 240 16
4.57935953140258789 8.38661956787109375 1.93696630001068115 0 125 181 240 16
4.69543647766113281 8.34972763061523438 2.11324954032897949 0 125 181 240 16
4.68984556198120117 8.34332370758056641 2.0751345157623291 0 125 181 240 16
4.70264196395874023 8.34979724884033203 2.15613698959350586 0 125 181 240 16
4.7223515510559082 8.38754081726074219 1.93799376487731934 0 125 181 240 16
4.70789146423339844 8.34212207794189453 1.78250622749328613 0 125 181 240 16
4.71997213363647461 8.37994575500488281 2.11932945251464844 0 125 181 240 16
4.70547866821289062 8.35297870635986328 1.87427544593811035 0 125 181 240 16
4.65990257263183594 8.33651161193847656 1.80152225494384766 0 125 181 240 16
4.66609001159667969 8.33300399780273438 1.89256250858306885 0 125 181 240 16
4.72801971435546875 8.39238166809082031 2.04324150085449219 0 125 181 240 16
4.72307205200195312 8.38060379028320312 2.08459186553955078 0 125 181 240 16
4.7321009635925293 8.39653491973876953 2.00064802169799805 0 125 181 240 16
4.72481775283813477 8.40601348876953125 1.96763622760772705 0 125 181 240 16
4.67864131927490234 8.33773517608642578 1.98144567012786865 0 125 181 240 16
4.69616460800170898 8.34650611877441406 1.99054384231567383 0 125 181 240 16
4.69342994689941406 8.34353446960449219 1.88849794864654541 0 125 181 240 16
4.70581340789794922 8.35316085815429688 1.94967341423034668 0 125 181 240 16
4.71503639221191406 8.36652755737304688 1.9719616174697876 0 125 181 240 16
4.70171928405761719 8.34814834594726562 1.83359193801879883 0 125 181 240 16
4.72437000274658203 8.38321304321289062 1.89573180675506592 0 125 181 240 16
4.73188638687133789 8.39145946502685547 1.84928333759307861 0 125 181 240 16
4.71458244323730469 8.38112068176269531 2.18686580657958984 0 125 181 240 16
4.70292949676513672 8.36696815490722656 2.19176650047302246 0 125 181 240 16
4.70806360244750977 8.35744953155517578 2.06589317321777344 0 125 181 240 16
4.66940450668334961 8.33317661285400391 2.0392143726348877 0 125 181 240 16
4.79452943801879883 8.41339397430419922 2.04532575607299805 0 125 181 240 16
4.83094358444213867 8.42471981048583984 2.05261731147766113 0 125 181 240 16
4.87677812576293945 8.45005130767822266 2.05649018287658691 0 125 181 240 16
4.85113096237182617 8.43421363830566406 2.06586408615112305 0 125 181 240 16
4.87219953536987305 8.44966220855712891 2.00238323211669922 0 125 181 240 16
4.81257867813110352 8.42112445831298828 2.00421547889709473 0 125 181 240 16
4.87811708450317383 8.44365882873535156 2.02714300155639648 0 125 181 240 16
4.80457401275634766 8.42994880676269531 1.9881356954574585 0 125 181 240 16
4.83446741104125977 8.43154048919677734 2.00754499435424805 0 125 181 240 16
5.06483936309814453 8.51317214965820312 2.05398750305175781 0 125 181 240 16
5.03445720672607422 8.50339794158935547 2.06666731834411621 0 125 181 240 16
5.06620645523071289 8.50895977020263672 2.01588582992553711 0 125 181 240 16
5.12098360061645508 8.54765510559082031 2.01891422271728516 0 125 181 240 16
5.08081626892089844 8.53173732757568359 1.99751520156860352 0 125 181 240 16
5.09081792831420898 8.53254985809326172 2.06602954864501953 0 125 181 240 16
4.91918087005615234 8.36886692047119141 2.16305947303771973 0 125 181 240 16
4.93660116195678711 8.37797069549560547 2.17597126960754395 0 125 181 240 16
4.92824411392211914 8.37996673583984375 2.18235635757446289 0 125 181 240 16
4.95951461791992188 8.44433403015136719 2.17540359497070312 0 125 181 240 16
5.12989091873168945 8.5497589111328125 2.09244155883789062 0 125 181 240 16
4.92555141448974609 8.46934318542480469 2.03419256210327148 0 125 181 240 16
4.949066162109375 8.49462127685546875 2.04523277282714844 0 125 181 240 16
4.93888759613037109 8.50614547729492188 2.08411765098571777 0 125 181 240 16
5.04731655120849609 8.50544643402099609 2.07809019088745117 0 125 181 240 16
5.0820159912109375 8.51315593719482422 2.08641648292541504 0 125 181 240 16
5.06284379959106445 8.51332950592041016 2.1019444465637207 0 125 181 240 16
5.2524724006652832 8.51312923431396484 1.69489598274230957 0 125 181 240 16
5.23008632659912109 8.53935146331787109 1.74183201789855957 0 125 181 240 16
5.04537773132324219 8.50051116943359375 1.94253599643707275 0 125 181 240 16
5.07716560363769531 8.51654434204101562 1.93877816200256348 0 125 181 240 16
5.08295154571533203 8.52998256683349609 1.96729230880737305 0 125 181 240 16
5.10417938232421875 8.52831363677978516 1.95130479335784912 0 125 181 240 16
5.05422639846801758 8.51645469665527344 1.98027336597442627 0 125 181 240 16
4.9508056640625 8.48452949523925781 1.79197812080383301 0 125 181 240 16
5.23487138748168945 8.54472827911376953 2.0001227855682373 0 125 181 240 16
5.14125823974609375 8.53213691711425781 1.91503679752349854 0 125 181 240 16
5.19948911666870117 8.53596973419189453 1.90478813648223877 0 125 181 240 16
4.90032148361206055 8.47467422485351562 1.97536110877990723 0 125 181 240 16
4.92797660827636719 8.47359943389892578 2.00127315521240234 0 125 181 240 16
4.93690872192382812 8.47480964660644531 1.96251106262207031 0 125 181 240 16
4.94516801834106445 8.48501682281494141 1.89180147647857666 0 125 181 240 16
5.14998292922973633 8.53450775146484375 1.84846603870391846 0 125 181 240 16
5.13471174240112305 8.53175449371337891 1.88582801818847656 0 125 181 240 16
4.96310281753540039 8.42732524871826172 2.18445348739624023 0 125 181 240 16
4.93615198135375977 8.41669082641601562 2.14924764633178711 0 125 181 240 16
4.8965916633605957 8.44780635833740234 2.07498598098754883 0 125 181 240 16
4.90753459930419922 8.45946693420410156 2.00815701484680176 0 125 181 240 16
5.03898525238037109 8.49778652191162109 1.85992109775543213 0 125 181 240 16
4.95555448532104492 8.48354148864746094 1.85327458381652832 0 125 181 240 16
4.98017072677612305 8.47657012939453125 1.90033268928527832 0 125 181 240 16
4.99057388305664062 8.48206329345703125 1.8713308572769165 0 125 181 240 16
5.23417329788208008 8.53923130035400391 1.87669730186462402 0 125 181 240 16
5.00609302520751953 8.50374698638916016 2.09816265106201172 0 125 181 240 16
5.0662074089050293 8.51079654693603516 1.83572566509246826 0 125 181 240 16
5.09305477142333984 8.51662635803222656 1.86733651161193848 0 125 181 240 16
5.07625102996826172 8.50887966156005859 1.90441679954528809 0 125 181 240 16
5.0250401496887207 8.49133968353271484 2.02061772346496582 0 125 181 240 16
5.00082731246948242 8.50641822814941406 1.99057233333587646 0 125 181 240 16
5.00118398666381836 8.49056625366210938 2.03097057342529297 0 125 181 240 16
4.97860002517700195 8.490997314453125 2.05812597274780273 0 125 181 240 16
5.00773429870605469 8.50429821014404297 2.06063151359558105 0 125 181 240 16
4.97947406768798828 8.48471832275390625 2.03524446487426758 0 125 181 240 16
4.93821907043457031 8.47722911834716797 2.15357041358947754 0 125 181 240 16
4.90302038192749023 8.43270301818847656 2.09143495559692383 0 125 181 240 16
4.89449357986450195 8.40837955474853516 2.12564539909362793 0 125 181 240 16
4.91493844985961914 8.40080070495605469 2.11787199974060059 0 125 181 240 16
4.89390468597412109 8.43631553649902344 2.10853362083435059 0 125 181 240 16
4.93467903137207031 8.44928550720214844 2.11877083778381348 0 125 181 240 16
4.8912816047668457 8.40332794189453125 2.08530449867248535 0 125 181 240 16
4.9330744743347168 8.43745231628417969 2.1511533260345459 0 125 181 240 16
4.87579059600830078 8.44599628448486328 2.08613443374633789 0 125 181 240 16
4.91730451583862305 8.46987056732177734 2.08649063110351562 0 125 181 240 16
4.92349958419799805 8.43142127990722656 2.10247087478637695 0 125 181 240 16
4.89685535430908203 8.38807582855224609 2.15123510360717773 0 125 181 240 16
4.94777393341064453 8.39371395111083984 2.16784954071044922 0 125 181 240 16
4.88162612915039062 8.41427421569824219 2.12950825691223145 0 125 181 240 16
5.2153315544128418 8.55109882354736328 2.10006952285766602 0 125 181 240 16
5.20341587066650391 8.54159736633300781 1.77400052547454834 0 125 181 240 16
5.22956275939941406 8.54053497314453125 1.84230446815490723 0 125 181 240 16
5.20203924179077148 8.53933048248291016 1.85683465003967285 0 125 181 240 16
5.22988510131835938 8.53988552093505859 1.92015790939331055 0 125 181 240 16
5.23596286773681641 8.53920078277587891 1.96797442436218262 0 125 181 240 16
4.84381246566772461 8.45805549621582031 1.98255205154418945 0 125 181 240 16
4.87231779098510742 8.46264934539794922 1.981559157371521 0 125 181 240 16
5.01496696472167969 8.49353313446044922 1.91831696033477783 0 125 181 240 16
4.98383283615112305 8.47666358947753906 1.93073475360870361 0 125 181 240 16
4.97768163681030273 8.4973602294921875 1.9736940860748291 0 125 181 240 16
5.02322101593017578 8.50716114044189453 1.97557711601257324 0 125 181 240 16
4.95358896255493164 8.48709678649902344 1.99859881401062012 0 125 181 240 16
5.06005144119262695 8.50422477722167969 1.810813307762146 0 125 181 240 16
5.06027460098266602 8.50441646575927734 1.7789006233215332 0 125 181 240 16
5.17671632766723633 8.55165672302246094 1.78478133678436279 0 125 181 240 16
5.09724855422973633 8.51996517181396484 1.82339954376220703 0 125 181 240 16
5.14264535903930664 8.53075027465820312 1.77587020397186279 0 125 181 240 16
4.91623067855834961 8.38277339935302734 2.13789749145507812 0 125 181 240 16
4.87354469299316406 8.39251327514648438 2.13875961303710938 0 125 181 240 16
4.98522377014160156 8.47804546356201172 1.79051899909973145 0 125 181 240 16
5.01798152923583984 8.49255847930908203 1.79655802249908447 0 125 181 240 16
4.9881281852722168 8.47675228118896484 1.81668221950531006 0 125 181 240 16
4.99021244049072266 8.47156238555908203 1.76140034198760986 0 125 181 240 16
5.01762151718139648 8.49238491058349609 1.83661901950836182 0 125 181 240 16
5.17798662185668945 8.53101921081542969 1.74060285091400146 0 125 181 240 16
4.963134765625 8.48724460601806641 1.95646905899047852 0 125 181 240 16
4.86374521255493164 8.45814609527587891 2.09923791885375977 0 125 181 240 16
4.85627031326293945 8.41990184783935547 2.10660815238952637 0 125 181 240 16
4.83835458755493164 8.42566967010498047 2.08100986480712891 0 125 181 240 16
5.14494562149047852 8.55462169647216797 2.05081653594970703 0 125 181 240 16
5.16830587387084961 8.58043098449707031 2.03864908218383789 0 125 181 240 16
5.16985273361206055 8.57616710662841797 2.0182802677154541 0 125 181 240 16
5.16453027725219727 8.583526611328125 1.99578571319580078 0 125 181 240 16
5.14601993560791016 8.55628013610839844 2.01448202133178711 0 125 181 240 16
5.12721586227416992 8.56368541717529297 1.99661016464233398 0 125 181 240 16
5.10364818572998047 8.55266571044921875 1.98287999629974365 0 125 181 240 16
5.23596858978271484 8.54493808746337891 2.05571937561035156 0 125 181 240 16
5.21884012222290039 8.54599380493164062 2.04771089553833008 0 125 181 240 16
5.17529106140136719 8.54677867889404297 1.91955256462097168 0 125 181 240 16
5.17166042327880859 8.54805278778076172 1.84981811046600342 0 125 181 240 16
5.17632770538330078 8.54543018341064453 1.89259707927703857 0 125 181 240 16
5.14092493057250977 8.54584503173828125 1.95668268203735352 0 125 181 240 16
5.14709615707397461 8.57086181640625 1.98431098461151123 0 125 181 240 16
5.17514657974243164 8.55684757232666016 1.96249496936798096 0 125 181 240 16
5.23491477966308594 8.55047702789306641 2.09882235527038574 0 125 181 240 16
5.23680257797241211 8.54342269897460938 2.12151193618774414 0 125 181 240 16
5.19898414611816406 8.54986572265625 1.94254159927368164 0 125 181 240 16
5.20039987564086914 8.5576019287109375 1.99379801750183105 0 125 181 240 16
5.09840536117553711 8.53744411468505859 2.03262734413146973 0 125 181 240 16
5.17777061462402344 8.54854488372802734 1.82105350494384766 0 125 181 240 16
5.20063495635986328 8.56564235687255859 2.0706939697265625 0 125 181 240 16
5.20052862167358398 8.56222057342529297 2.02723884582519531 0 125 181 240 16
