ply
format ascii 1.0
element vertex 220
property float x
property float y
property float z
property uchar red
property uchar green
property uchar blue
property uchar alpha
property uint label
end_header
7.83356952667236328 2.08011436462402344 1.28190040588378906 0 125 181 240 16
7.82345342636108398 2.01542949676513672 1.37783288955688477 0 125 181 240 16
7.81337118148803711 2.03240275382995605 1.34390425682067871 0 125 181 240 16
7.75180149078369141 2.052703857421875 1.27730751037597656 0 125 181 240 16
7.80590009689331055 2.03989601135253906 1.31385433673858643 0 125 181 240 16
7.84795999526977539 2.02753448486328125 1.37133562564849854 0 125 181 240 16
7.88315725326538086 2.03379583358764648 1.38472533226013184 0 125 181 240 16
8.08112621307373047 2.17294979095458984 1.30853605270385742 0 125 181 240 16
7.98907852172851562 2.15784192085266113 1.28090500831604004 0 125 181 240 16
8.038116455078125 2.16862726211547852 1.29131591320037842 0 125 181 240 16
7.84210824966430664 2.05829858779907227 1.30898153781890869 0 125 181 240 16
7.85534000396728516 2.0500786304473877 1.34761202335357666 0 125 181 240 16
7.88929653167724609 2.06730556488037109 1.34196364879608154 0 125 181 240 16
8.24639987945556641 2.20509982109069824 1.3817218542098999 0 125 181 240 16
8.21205425262451172 2.21239852905273438 1.4028017520904541 0 125 181 240 16
8.19324207305908203 2.18459963798522949 1.39390432834625244 0 125 181 240 16
8.20448493957519531 2.20425128936767578 1.366829514503479 0 125 181 240 16
8.21341514587402344 2.20144915580749512 1.43456900119781494 0 125 181 240 16
8.16721343994140625 2.18118190765380859 1.3779672384262085 0 125 181 240 16
8.05588817596435547 2.1982569694519043 1.27081668376922607 0 125 181 240 16
8.00942516326904297 2.18096208572387695 1.25540673732757568 0 125 181 240 16
7.78779125213623047 2.06220865249633789 1.28290462493896484 0 125 181 240 16
8.20805454254150391 2.23172163963317871 1.4506990909576416 0 125 181 240 16
8.1845245361328125 2.19749546051025391 1.44048666954040527 0 125 181 240 16
8.15875816345214844 2.19815778732299805 1.34495830535888672 0 125 181 240 16
8.1051177978515625 2.21260285377502441 1.2804110050201416 0 125 181 240 16
8.10971450805664062 2.17946171760559082 1.33588182926177979 0 125 181 240 16
8.27732753753662109 2.24120783805847168 1.38101005554199219 0 125 181 240 16
8.25921535491943359 2.23271846771240234 1.35755348205566406 0 125 181 240 16
8.07779121398925781 2.2146146297454834 1.25681376457214355 0 125 181 240 16
8.13496589660644531 2.24006056785583496 1.26101171970367432 0 125 181 240 16
8.21250438690185547 2.22358417510986328 1.34748411178588867 0 125 181 240 16
8.18480682373046875 2.24731993675231934 1.28041255474090576 0 125 181 240 16
8.1167755126953125 2.19286108016967773 1.30641055107116699 0 125 181 240 16
7.99461078643798828 2.12929224967956543 1.31037712097167969 0 125 181 240 16
7.93446540832519531 2.12845611572265625 1.2787700891494751 0 125 181 240 16
7.93756437301635742 2.09151005744934082 1.34375679492950439 0 125 181 240 16
7.956817626953125 2.10950732231140137 1.30739951133728027 0 125 181 240 16
8.06370353698730469 2.13040781021118164 1.36996173858642578 0 125 181 240 16
7.97323369979858398 2.10359525680541992 1.34405851364135742 0 125 181 240 16
8.02646446228027344 2.14274787902832031 1.30989170074462891 0 125 181 240 16
8.01780796051025391 2.12486481666564941 1.34680211544036865 0 125 181 240 16
8.08066654205322266 2.16348028182983398 1.33925056457519531 0 125 181 240 16
7.71720409393310547 2.03089618682861328 1.28484809398651123 0 125 181 240 16
7.87624979019165039 2.10785102844238281 1.27676188945770264 0 125 181 240 16
7.8851475715637207 2.07731413841247559 1.30781376361846924 0 125 181 240 16
7.92524576187133789 2.09461545944213867 1.31218838691711426 0 125 181 240 16
8.25494766235351562 2.24546217918395996 1.32696545124053955 0 125 181 240 16
8.3052215576171875 2.27649593353271484 1.30983710289001465 0 125 181 240 16
8.22833824157714844 2.27205252647399902 1.27212405204772949 0 125 181 240 16
8.28162097930908203 2.25442671775817871 1.34637439250946045 0 125 181 240 16
8.28744792938232422 2.2625119686126709 1.30611085891723633 0 125 181 240 16
8.27018070220947266 2.28059077262878418 1.27715051174163818 0 125 181 240 16
8.30225276947021484 2.30534839630126953 1.27529370784759521 0 125 181 240 16
8.22909069061279297 2.23936247825622559 1.31115210056304932 0 125 181 240 16
8.02078151702880859 2.10419631004333496 1.37324357032775879 0 125 181 240 16
7.95425844192504883 2.07449102401733398 1.37096500396728516 0 125 181 240 16
7.91846370697021484 2.06495046615600586 1.3706049919128418 0 125 181 240 16
8.10647201538085938 2.14489102363586426 1.38914072513580322 0 125 181 240 16
8.12507820129394531 2.16603398323059082 1.37432122230529785 0 125 181 240 16
7.82639551162719727 2.00681662559509277 1.43405735492706299 0 125 181 240 16
7.87071466445922852 2.03037095069885254 1.49902892112731934 0 125 181 240 16
7.88537406921386719 2.03763103485107422 1.47351109981536865 0 125 181 240 16
7.85719108581542969 2.02011656761169434 1.46156132221221924 0 125 181 240 16
8.05454254150390625 2.11532092094421387 1.41456699371337891 0 125 181 240 16
8.07054328918457031 2.12622594833374023 1.38696801662445068 0 125 181 240 16
8.01812553405761719 2.10289311408996582 1.41349875926971436 0 125 181 240 16
7.85002422332763672 2.02813839912414551 1.40858256816864014 0 125 181 240 16
7.87611722946166992 2.03684329986572266 1.42092633247375488 0 125 181 240 16
7.90440082550048828 2.05161762237548828 1.40713608264923096 0 125 181 240 16
7.92033863067626953 2.05565810203552246 1.41454601287841797 0 125 181 240 16
7.96680593490600586 2.07709527015686035 1.4388505220413208 0 125 181 240 16
7.94776201248168945 2.07342839241027832 1.38935375213623047 0 125 181 240 16
7.93457603454589844 2.06577920913696289 1.42612326145172119 0 125 181 240 16
8.15970325469970703 2.16977071762084961 1.430428147315979 0 125 181 240 16
8.17999076843261719 2.17278051376342773 1.43928825855255127 0 125 181 240 16
8.17152500152587891 2.18667387962341309 1.4159473180770874 0 125 181 240 16
8.14171028137207031 2.16058683395385742 1.44142961502075195 0 125 181 240 16
8.233062744140625 2.18828248977661133 1.4679793119430542 0 125 181 240 16
8.21530246734619141 2.20771455764770508 1.45876848697662354 0 125 181 240 16
8.20252513885498047 2.20781493186950684 1.44760096073150635 0 125 181 240 16
8.185516357421875 2.1640470027923584 1.49627816677093506 0 125 181 240 16
8.18221664428710938 2.1778261661529541 1.46222293376922607 0 125 181 240 16
7.90736675262451172 2.04564356803894043 1.45160543918609619 0 125 181 240 16
7.93535518646240234 2.06293559074401855 1.47297942638397217 0 125 181 240 16
7.910003662109375 2.05079984664916992 1.50090348720550537 0 125 181 240 16
8.08394050598144531 2.13878130912780762 1.40734148025512695 0 125 181 240 16
8.10304164886474609 2.13820648193359375 1.43684709072113037 0 125 181 240 16
8.1251373291015625 2.14340019226074219 1.4647669792175293 0 125 181 240 16
8.08020973205566406 2.11808156967163086 1.51874160766601562 0 125 181 240 16
8.1177520751953125 2.14292049407958984 1.51235854625701904 0 125 181 240 16
8.11839962005615234 2.14545297622680664 1.48460578918457031 0 125 181 240 16
8.15867328643798828 2.15709376335144043 1.49383449554443359 0 125 181 240 16
8.06608104705810547 2.12053871154785156 1.47937691211700439 0 125 181 240 16
8.04868316650390625 2.11316323280334473 1.47129833698272705 0 125 181 240 16
7.98206806182861328 2.0876166820526123 1.4770045280456543 0 125 181 240 16
8.04949951171875 2.10568475723266602 1.49035334587097168 0 125 181 240 16
8.00741767883300781 2.0917811393737793 1.44730901718139648 0 125 181 240 16
8.01596736907958984 2.10085582733154297 1.47391712665557861 0 125 181 240 16
8.01495552062988281 2.10123181343078613 1.50177121162414551 0 125 181 240 16
8.156158447265625 2.16784501075744629 1.47220897674560547 0 125 181 240 16
7.98128271102905273 2.08212614059448242 1.40648996829986572 0 125 181 240 16
8.13042736053466797 2.15070319175720215 1.41803133487701416 0 125 181 240 16
7.81813907623291016 2.00982546806335449 1.46644425392150879 0 125 181 240 16
7.79437017440795898 1.99882006645202637 1.47811543941497803 0 125 181 240 16
8.18401813507080078 2.15993547439575195 1.54322373867034912 0 125 181 240 16
7.99780082702636719 2.08093619346618652 1.56095623970031738 0 125 181 240 16
7.98814868927001953 2.08883547782897949 1.53796923160552979 0 125 181 240 16
7.95027256011962891 2.07882022857666016 1.51428079605102539 0 125 181 240 16
8.02610874176025391 2.11413335800170898 1.51397013664245605 0 125 181 240 16
8.05315494537353516 2.12013697624206543 1.59010624885559082 0 125 181 240 16
8.05975437164306641 2.12718582153320312 1.56909763813018799 0 125 181 240 16
8.04560947418212891 2.10494232177734375 1.56263613700866699 0 125 181 240 16
8.00509929656982422 2.08654022216796875 1.51672184467315674 0 125 181 240 16
8.03253555297851562 2.10064268112182617 1.55517613887786865 0 125 181 240 16
8.06212139129638672 2.10248017311096191 1.54435479640960693 0 125 181 240 16
8.15334510803222656 2.16170883178710938 1.57229161262512207 0 125 181 240 16
8.12949752807617188 2.16013717651367188 1.51020419597625732 0 125 181 240 16
7.83006191253662109 2.01267790794372559 1.52866089344024658 0 125 181 240 16
7.84659671783447266 2.01952815055847168 1.57864594459533691 0 125 181 240 16
7.93044471740722656 2.05657720565795898 1.51742458343505859 0 125 181 240 16
7.95656633377075195 2.05502915382385254 1.54160499572753906 0 125 181 240 16
7.95964241027832031 2.06831765174865723 1.55415165424346924 0 125 181 240 16
7.93404626846313477 2.05411434173583984 1.57685363292694092 0 125 181 240 16
7.96533632278442383 2.0740208625793457 1.58203029632568359 0 125 181 240 16
7.918304443359375 2.04744482040405273 1.54766309261322021 0 125 181 240 16
8.16064739227294922 2.16933274269104004 1.51960396766662598 0 125 181 240 16
8.19929218292236328 2.15940070152282715 1.52351057529449463 0 125 181 240 16
7.84324884414672852 2.01580667495727539 1.50136768817901611 0 125 181 240 16
7.90044593811035156 2.04072213172912598 1.5341109037399292 0 125 181 240 16
7.86796951293945312 2.02725839614868164 1.56827831268310547 0 125 181 240 16
7.90522480010986328 2.044677734375 1.56580924987792969 0 125 181 240 16
7.8757634162902832 2.03212952613830566 1.53434586524963379 0 125 181 240 16
7.8680119514465332 2.02230048179626465 1.54757177829742432 0 125 181 240 16
7.88526725769042969 2.04513072967529297 1.56328439712524414 0 125 181 240 16
7.9980931282043457 2.06004977226257324 1.58779144287109375 0 125 181 240 16
8.08761215209960938 2.12969613075256348 1.58799195289611816 0 125 181 240 16
8.09697246551513672 2.13400959968566895 1.56844806671142578 0 125 181 240 16
8.0911102294921875 2.11065912246704102 1.54994297027587891 0 125 181 240 16
8.10461616516113281 2.13093066215515137 1.54041159152984619 0 125 181 240 16
8.16039466857910156 2.13864374160766602 1.54074501991271973 0 125 181 240 16
8.11714744567871094 2.15047931671142578 1.53121387958526611 0 125 181 240 16
8.12704372406005859 2.13939499855041504 1.54999423027038574 0 125 181 240 16
8.12516593933105469 2.13190841674804688 1.59067928791046143 0 125 181 240 16
8.13893318176269531 2.14443564414978027 1.57755303382873535 0 125 181 240 16
8.03791522979736328 2.11564278602600098 1.66875159740447998 0 125 181 240 16
8.03852939605712891 2.12326169013977051 1.71495795249938965 0 125 181 240 16
8.01353931427001953 2.10573983192443848 1.70785880088806152 0 125 181 240 16
8.01762199401855469 2.09463667869567871 1.74889826774597168 0 125 181 240 16
8.09099388122558594 2.14173674583435059 1.71835076808929443 0 125 181 240 16
7.94533109664916992 2.07404446601867676 1.69127929210662842 0 125 181 240 16
7.97362756729125977 2.07972455024719238 1.75143027305603027 0 125 181 240 16
7.96884632110595703 2.08090114593505859 1.67636334896087646 0 125 181 240 16
7.95168161392211914 2.08563899993896484 1.72776007652282715 0 125 181 240 16
7.98109626770019531 2.0914452075958252 1.71721935272216797 0 125 181 240 16
8.18025684356689453 2.17389464378356934 1.67143940925598145 0 125 181 240 16
8.15319156646728516 2.16352224349975586 1.65652930736541748 0 125 181 240 16
8.2039031982421875 2.1895897388458252 1.65821528434753418 0 125 181 240 16
8.34304428100585938 2.21462917327880859 1.7513655424118042 0 125 181 240 16
8.32178688049316406 2.19875526428222656 1.75882911682128906 0 125 181 240 16
8.34673404693603516 2.21535372734069824 1.79448056221008301 0 125 181 240 16
8.31453800201416016 2.17359471321105957 1.77623343467712402 0 125 181 240 16
8.03281974792480469 2.09094476699829102 1.76512980461120605 0 125 181 240 16
8.35669994354248047 2.20327520370483398 1.89546549320220947 0 125 181 240 16
8.34630203247070312 2.17767786979675293 1.92694270610809326 0 125 181 240 16
8.29817676544189453 2.18704938888549805 1.7553565502166748 0 125 181 240 16
7.83375930786132812 2.01709842681884766 1.67515325546264648 0 125 181 240 16
7.84249448776245117 2.02573275566101074 1.68822348117828369 0 125 181 240 16
7.88251161575317383 2.0445711612701416 1.68680143356323242 0 125 181 240 16
7.85219144821166992 2.0425574779510498 1.71116518974304199 0 125 181 240 16
7.88998222351074219 2.04679584503173828 1.73064446449279785 0 125 181 240 16
7.85548210144042969 2.03961682319641113 1.74388217926025391 0 125 181 240 16
7.92515802383422852 2.05349636077880859 1.67937159538269043 0 125 181 240 16
7.87444162368774414 2.0426793098449707 1.67457449436187744 0 125 181 240 16
8.09252262115478516 2.09950113296508789 1.76517307758331299 0 125 181 240 16
8.12347793579101562 2.12015175819396973 1.76125216484069824 0 125 181 240 16
8.1230621337890625 2.14339780807495117 1.76111233234405518 0 125 181 240 16
8.15821361541748047 2.14440679550170898 1.7602074146270752 0 125 181 240 16
7.82615518569946289 2.02568650245666504 1.72782838344573975 0 125 181 240 16
8.14205646514892578 2.16477012634277344 1.67408239841461182 0 125 181 240 16
8.32394218444824219 2.23101425170898438 1.72451019287109375 0 125 181 240 16
8.32623195648193359 2.18394756317138672 1.81222081184387207 0 125 181 240 16
8.35349178314208984 2.20836019515991211 1.83442211151123047 0 125 181 240 16
8.33900833129882812 2.20156478881835938 1.86153995990753174 0 125 181 240 16
8.32323932647705078 2.169525146484375 1.84921133518218994 0 125 181 240 16
8.33044910430908203 2.17884230613708496 1.88424742221832275 0 125 181 240 16
8.11948776245117188 2.15345215797424316 1.65405833721160889 0 125 181 240 16
8.09395027160644531 2.133056640625 1.6617656946182251 0 125 181 240 16
8.06306362152099609 2.06972289085388184 1.7779010534286499 0 125 181 240 16
8.01676368713378906 2.07189655303955078 1.76440095901489258 0 125 181 240 16
8.04256916046142578 2.06169390678405762 1.78194308280944824 0 125 181 240 16
8.00926971435546875 2.09335780143737793 1.6711963415145874 0 125 181 240 16
8.06787586212158203 2.12330150604248047 1.67507922649383545 0 125 181 240 16
8.2499237060546875 2.21837806701660156 1.69336020946502686 0 125 181 240 16
8.26224422454833984 2.2167212963104248 1.67991960048675537 0 125 181 240 16
8.24575233459472656 2.21373653411865234 1.71200728416442871 0 125 181 240 16
8.25019264221191406 2.19527435302734375 1.75287199020385742 0 125 181 240 16
8.25986003875732422 2.20666265487670898 1.73253011703491211 0 125 181 240 16
7.9050135612487793 2.05431032180786133 1.71598410606384277 0 125 181 240 16
7.91185522079467773 2.05634617805480957 1.75189566612243652 0 125 181 240 16
8.30412006378173828 2.23553609848022461 1.70459330081939697 0 125 181 240 16
8.19638919830322266 2.15436148643493652 1.75492238998413086 0 125 181 240 16
8.24963474273681641 2.19986224174499512 1.65289878845214844 0 125 181 240 16
8.28561496734619141 2.23180866241455078 1.65330040454864502 0 125 181 240 16
8.10303688049316406 2.05619192123413086 1.79437851905822754 0 125 181 240 16
8.08805751800537109 2.08196306228637695 1.77744030952453613 0 125 181 240 16
8.13918972015380859 2.1680450439453125 1.71813380718231201 0 125 181 240 16
8.165618896484375 2.17874693870544434 1.69711935520172119 0 125 181 240 16
8.19820117950439453 2.19818878173828125 1.70356976985931396 0 125 181 240 16
8.17331600189208984 2.18051552772521973 1.73188114166259766 0 125 181 240 16
8.14313793182373047 2.15966558456420898 1.73410916328430176 0 125 181 240 16
8.20806217193603516 2.18143749237060547 1.74033844470977783 0 125 181 240 16
8.22235870361328125 2.16251683235168457 1.75476408004760742 0 125 181 240 16
8.09743499755859375 2.14703559875488281 1.6984868049621582 0 125 181 240 16
8.0743865966796875 2.10930037498474121 1.74685430526733398 0 125 181 240 16
8.11375808715820312 2.14461088180541992 1.74195301532745361 0 125 181 240 16
8.06551361083984375 2.13457727432250977 1.702018141746521 0 125 181 240 16
7.90976285934448242 1.99522626399993896 1.77388811111450195 0 125 181 240 16
7.89653491973876953 2.02428746223449707 1.76012349128723145 0 125 181 240 16
7.85175991058349609 2.01704216003417969 1.75533950328826904 0 125 181 240 16
