ply
format ascii 1.0
element vertex 150
property float x
property float y
property float z
property uchar red
property uchar green
property uchar blue
property uchar alpha
property uint label
end_header
3.49590539932250977 1.30351805686950684 0.283405542373657227 0 0 255 244 12
3.49026656150817871 1.33899939060211182 0.218266308307647705 0 0 255 244 12
3.49446272850036621 1.33456730842590332 0.170201539993286133 0 0 255 244 12
3.57501959800720215 1.36308729648590088 0.254054427146911621 0 0 255 244 12
3.54893350601196289 1.36449730396270752 0.286224216222763062 0 0 255 244 12
3.58203482627868652 1.37068259716033936 0.296153604984283447 0 0 255 244 12
3.55281782150268555 1.34912002086639404 0.289122164249420166 0 0 255 244 12
3.64944624900817871 1.27108561992645264 0.0606718361377716064 0 0 255 244 12
3.61328935623168945 1.32367157936096191 0.0561104565858840942 0 0 255 244 12
3.67909073829650879 1.17286121845245361 0.0745750740170478821 0 0 255 244 12
3.5684659481048584 1.3563385009765625 0.111174389719963074 0 0 255 244 12
3.58920383453369141 1.33639538288116455 0.0975718572735786438 0 0 255 244 12
3.58939027786254883 1.33695602416992188 0.145736172795295715 0 0 255 244 12
3.5485069751739502 1.36202406883239746 0.267607390880584717 0 0 255 244 12
3.57332086563110352 1.35699081420898438 0.1960439532995224 0 0 255 244 12
3.52226638793945312 1.35187530517578125 0.214233919978141785 0 0 255 244 12
3.49518179893493652 1.33421468734741211 0.256535828113555908 0 0 255 244 12
3.50919127464294434 1.3391798734664917 0.286761939525604248 0 0 255 244 12
3.61168813705444336 1.33992588520050049 0.282842755317687988 0 0 255 244 12
3.53606986999511719 1.3055797815322876 0.27409788966178894 0 0 255 244 12
3.57006382942199707 1.32486319541931152 0.277790218591690063 0 0 255 244 12
3.66492390632629395 1.21137988567352295 0.0702812373638153076 0 0 255 244 12
3.67062497138977051 1.23648464679718018 0.0611584074795246124 0 0 255 244 12
3.6800379753112793 1.14691674709320068 0.101703189313411713 0 0 255 244 12
3.69427180290222168 1.11541688442230225 0.081083640456199646 0 0 255 244 12
3.63528823852539062 1.24120151996612549 0.139949485659599304 0 0 255 244 12
3.64106965065002441 1.24950897693634033 0.109601624310016632 0 0 255 244 12
3.64826130867004395 1.2119370698928833 0.124477237462997437 0 0 255 244 12
3.63005948066711426 1.27399909496307373 0.11017896980047226 0 0 255 244 12
3.64259481430053711 1.25961828231811523 0.0795943513512611389 0 0 255 244 12
3.60389113426208496 1.3311302661895752 0.234164774417877197 0 0 255 244 12
3.54959940910339355 1.36074697971343994 0.165560394525527954 0 0 255 244 12
3.63260674476623535 1.27643311023712158 0.214143633842468262 0 0 255 244 12
3.65925741195678711 1.19805705547332764 0.169531524181365967 0 0 255 244 12
3.64041376113891602 1.23935794830322266 0.19824536144733429 0 0 255 244 12
3.6391749382019043 1.24456393718719482 0.221107617020606995 0 0 255 244 12
3.57388019561767578 1.35787796974182129 0.0690728947520256042 0 0 255 244 12
3.55082249641418457 1.35979020595550537 0.106512770056724548 0 0 255 244 12
3.61544299125671387 1.30258691310882568 0.0830849260091781616 0 0 255 244 12
3.60424184799194336 1.31557738780975342 0.137546420097351074 0 0 255 244 12
3.61752676963806152 1.29542207717895508 0.114264555275440216 0 0 255 244 12
3.62417840957641602 1.31938433647155762 0.285052984952926636 0 0 255 244 12
3.61075258255004883 1.32299864292144775 0.285945415496826172 0 0 255 244 12
3.63863444328308105 1.28676319122314453 0.289657324552536011 0 0 255 244 12
3.49883890151977539 1.22000551223754883 0.280339896678924561 0 0 255 244 12
3.48908495903015137 1.19793856143951416 0.291930288076400757 0 0 255 244 12
3.56726932525634766 1.13190722465515137 0.27117609977722168 0 0 255 244 12
3.58894801139831543 1.11953258514404297 0.28706061840057373 0 0 255 244 12
3.53229069709777832 1.16833734512329102 0.281512588262557983 0 0 255 244 12
3.55332708358764648 1.13913178443908691 0.285152703523635864 0 0 255 244 12
3.51558375358581543 1.15491151809692383 0.283057153224945068 0 0 255 244 12
3.54323649406433105 1.09235239028930664 0.254176735877990723 0 0 255 244 12
3.55871844291687012 1.12762308120727539 0.287306457757949829 0 0 255 244 12
3.53635549545288086 1.11567044258117676 0.267007410526275635 0 0 255 244 12
3.57872366905212402 1.09440052509307861 0.282938838005065918 0 0 255 244 12
3.51945137977600098 1.21363496780395508 0.259210258722305298 0 0 255 244 12
3.74212861061096191 1.07434070110321045 0.246150687336921692 0 0 255 244 12
3.66906952857971191 1.07802152633666992 0.299319475889205933 0 0 255 244 12
3.69816040992736816 1.07695996761322021 0.278848767280578613 0 0 255 244 12
3.73127889633178711 1.02249777317047119 0.24885837733745575 0 0 255 244 12
3.75975751876831055 1.05148482322692871 0.258870631456375122 0 0 255 244 12
3.73706626892089844 1.06257891654968262 0.261422425508499146 0 0 255 244 12
3.82367444038391113 0.934909284114837646 0.183420300483703613 0 0 255 244 12
3.7727668285369873 1.04496467113494873 0.29885399341583252 0 0 255 244 12
3.75709652900695801 1.05424773693084717 0.283708840608596802 0 0 255 244 12
3.7992854118347168 1.05075478553771973 0.287487030029296875 0 0 255 244 12
3.78058290481567383 1.04458713531494141 0.269160151481628418 0 0 255 244 12
3.75630688667297363 1.0428462028503418 0.328415602445602417 0 0 255 244 12
3.55930185317993164 1.20189547538757324 0.211876451969146729 0 0 255 244 12
3.58371973037719727 1.22204244136810303 0.220589816570281982 0 0 255 244 12
3.56434106826782227 1.19402694702148438 0.161797270178794861 0 0 255 244 12
3.56338071823120117 1.23365879058837891 0.234845101833343506 0 0 255 244 12
3.68711471557617188 1.14371287822723389 0.16692778468132019 0 0 255 244 12
3.70204615592956543 1.14157140254974365 0.197341457009315491 0 0 255 244 12
3.67582488059997559 1.18881762027740479 0.211951985955238342 0 0 255 244 12
3.71518540382385254 1.13686513900756836 0.232060283422470093 0 0 255 244 12
3.70659852027893066 0.990209758281707764 0.225592717528343201 0 0 255 244 12
3.7136530876159668 1.02521932125091553 0.174106553196907043 0 0 255 244 12
3.71606612205505371 0.979663431644439697 0.200251802802085876 0 0 255 244 12
3.72658491134643555 0.999150097370147705 0.20685654878616333 0 0 255 244 12
3.70723104476928711 0.994816899299621582 0.174438044428825378 0 0 255 244 12
3.77457547187805176 1.03215575218200684 0.215105548501014709 0 0 255 244 12
3.78723406791687012 1.03093099594116211 0.148805096745491028 0 0 255 244 12
3.68624353408813477 1.20971930027008057 0.269721269607543945 0 0 255 244 12
3.70810222625732422 1.16471695899963379 0.248733550310134888 0 0 255 244 12
3.71835207939147949 1.11914527416229248 0.250878870487213135 0 0 255 244 12
3.70136547088623047 1.10634589195251465 0.276424407958984375 0 0 255 244 12
3.6910088062286377 1.14341127872467041 0.273683220148086548 0 0 255 244 12
3.75218939781188965 1.05792272090911865 0.108982786536216736 0 0 255 244 12
3.79486417770385742 1.01071596145629883 0.0790751650929450989 0 0 255 244 12
3.71370911598205566 1.02283036708831787 0.123867027461528778 0 0 255 244 12
3.70726394653320312 0.99898219108581543 0.115423038601875305 0 0 255 244 12
3.67342877388000488 1.15210235118865967 0.280194640159606934 0 0 255 244 12
3.66055631637573242 1.15738630294799805 0.254569351673126221 0 0 255 244 12
3.60398244857788086 1.12426674365997314 0.289667516946792603 0 0 255 244 12
3.65131711959838867 1.14490628242492676 0.279679179191589355 0 0 255 244 12
3.59175777435302734 1.12431025505065918 0.252166152000427246 0 0 255 244 12
3.65088772773742676 1.11763036251068115 0.303400754928588867 0 0 255 244 12
3.65020632743835449 1.13667821884155273 0.295777946710586548 0 0 255 244 12
3.5824129581451416 1.16035878658294678 0.146632283926010132 0 0 255 244 12
3.64693188667297363 1.21351063251495361 0.230676189064979553 0 0 255 244 12
3.65641522407531738 1.18148267269134521 0.194631814956665039 0 0 255 244 12
3.65074563026428223 1.22150588035583496 0.221928536891937256 0 0 255 244 12
3.61005949974060059 1.2114560604095459 0.184785082936286926 0 0 255 244 12
3.63417673110961914 1.22438168525695801 0.201811686158180237 0 0 255 244 12
3.6174778938293457 1.23445093631744385 0.206643268465995789 0 0 255 244 12
3.65210914611816406 1.19956183433532715 0.194174483418464661 0 0 255 244 12
3.79644131660461426 1.01559913158416748 0.243595525622367859 0 0 255 244 12
3.80803465843200684 1.00412523746490479 0.311283618211746216 0 0 255 244 12
3.67298412322998047 1.21610677242279053 0.281288087368011475 0 0 255 244 12
3.74923133850097656 1.07031428813934326 0.0723746791481971741 0 0 255 244 12
3.71294927597045898 1.09517264366149902 0.0828438997268676758 0 0 255 244 12
3.72934126853942871 1.0768282413482666 0.114735908806324005 0 0 255 244 12
3.78837251663208008 1.02990436553955078 0.129077881574630737 0 0 255 244 12
3.58735346794128418 1.17863011360168457 0.149987071752548218 0 0 255 244 12
3.57806992530822754 1.1414719820022583 0.188163116574287415 0 0 255 244 12
3.56214642524719238 1.15572595596313477 0.200567513704299927 0 0 255 244 12
3.54941344261169434 1.17330968379974365 0.223014384508132935 0 0 255 244 12
3.57263755798339844 1.14014887809753418 0.216084346175193787 0 0 255 244 12
3.63438129425048828 1.08689284324645996 0.284955441951751709 0 0 255 244 12
3.66793680191040039 1.05870771408081055 0.287151545286178589 0 0 255 244 12
3.6088106632232666 1.07517993450164795 0.277392864227294922 0 0 255 244 12
3.66395831108093262 1.18060791492462158 0.187551692128181458 0 0 255 244 12
3.61705136299133301 1.18940544128417969 0.180930182337760925 0 0 255 244 12
3.62875247001647949 1.194732666015625 0.177032500505447388 0 0 255 244 12
3.63948464393615723 1.16734588146209717 0.194086566567420959 0 0 255 244 12
3.5982978343963623 1.1400991678237915 0.195964232087135315 0 0 255 244 12
3.64400386810302734 1.14796817302703857 0.240105152130126953 0 0 255 244 12
3.61648464202880859 1.15852928161621094 0.192390739917755127 0 0 255 244 12
3.65336751937866211 1.18057811260223389 0.217969894409179688 0 0 255 244 12
3.73165082931518555 1.09299325942993164 0.202481389045715332 0 0 255 244 12
3.74230027198791504 1.0786365270614624 0.16261938214302063 0 0 255 244 12
3.72542595863342285 1.09303343296051025 0.172323107719421387 0 0 255 244 12
3.69498276710510254 1.04194474220275879 0.290065109729766846 0 0 255 244 12
3.73449063301086426 1.0137636661529541 0.233018979430198669 0 0 255 244 12
3.71671557426452637 1.00563764572143555 0.259144812822341919 0 0 255 244 12
3.69337892532348633 0.995271384716033936 0.240403831005096436 0 0 255 244 12
3.62199950218200684 1.2890012264251709 0.269291728734970093 0 0 255 244 12
3.64789819717407227 1.28979325294494629 0.269958466291427612 0 0 255 244 12
3.65894889831542969 1.20560026168823242 0.274380534887313843 0 0 255 244 12
3.69399213790893555 1.20493698120117188 0.252598315477371216 0 0 255 244 12
3.65950655937194824 1.24593222141265869 0.288299441337585449 0 0 255 244 12
3.64330053329467773 1.25095522403717041 0.26809808611869812 0 0 255 244 12
3.63241171836853027 1.240081787109375 0.2329988032579422 0 0 255 244 12
3.61656355857849121 1.25130212306976318 0.234156697988510132 0 0 255 244 12
3.67307090759277344 1.24786412715911865 0.265066683292388916 0 0 255 244 12
3.80447983741760254 0.981391072273254395 0.194263875484466553 0 0 255 244 12
3.7931516170501709 1.01192796230316162 0.183215156197547913 0 0 255 244 12
3.80028128623962402 1.00029885768890381 0.221074804663658142 0 0 255 244 12
3.60243391990661621 1.15368521213531494 0.146223410964012146 0 0 255 244 12
