ply
format ascii 1.0
element vertex 66
property float x
property float y
property float z
property uchar red
property uchar green
property uchar blue
property uchar alpha
property uint label
end_header
6.10897397994995117 3.02990889549255371 0.0815506875514984131 255 0 246 27 229
6.09375619888305664 2.97469496726989746 0.0806146413087844849 255 0 246 27 229
6.13873624801635742 2.95961475372314453 0.0834309756755828857 255 0 246 27 229
6.25910091400146484 3.20417428016662598 0.0504736863076686859 255 0 246 27 229
6.13983821868896484 3.08988547325134277 0.0864152759313583374 255 0 246 27 229
6.07424783706665039 3.0772855281829834 0.0812132731080055237 255 0 246 27 229
6.10439777374267578 3.10398292541503906 0.0844063162803649902 255 0 246 27 229
6.09309720993041992 3.06124544143676758 0.0786635205149650574 255 0 246 27 229
6.39338111877441406 3.08747172355651855 0.0444566085934638977 255 0 246 27 229
6.36878156661987305 3.05948662757873535 0.053423561155796051 255 0 246 27 229
6.35612058639526367 3.12314939498901367 0.0781638398766517639 255 0 246 27 229
6.06787300109863281 3.12413334846496582 0.0803779810667037964 255 0 246 27 229
6.23076963424682617 3.03195595741271973 0.0795307457447052002 255 0 246 27 229
6.28666353225708008 3.06772780418395996 0.0825190097093582153 255 0 246 27 229
6.23183822631835938 3.06566786766052246 0.0807210281491279602 255 0 246 27 229
6.29084157943725586 3.13405466079711914 0.0807949602603912354 255 0 246 27 229
6.00916433334350586 2.9501497745513916 0.06240062415599823 255 0 246 27 229
6.01644277572631836 3.00143790245056152 0.0671081170439720154 255 0 246 27 229
6.13301610946655273 3.2473609447479248 0.0461542792618274689 255 0 246 27 229
6.10049772262573242 3.24388408660888672 0.0603319592773914337 255 0 246 27 229
6.15994882583618164 3.22965049743652344 0.0754299759864807129 255 0 246 27 229
6.08916282653808594 3.22099590301513672 0.068144775927066803 255 0 246 27 229
6.18134164810180664 2.98503994941711426 0.0811666101217269897 255 0 246 27 229
6.14740753173828125 3.00441837310791016 0.0809573978185653687 255 0 246 27 229
6.35312891006469727 2.98929977416992188 0.047205708920955658 255 0 246 27 229
6.37358570098876953 3.01368093490600586 0.0455563478171825409 255 0 246 27 229
6.08979701995849609 2.94924688339233398 0.0762238353490829468 255 0 246 27 229
5.99262809753417969 2.92980790138244629 0.0525690503418445587 255 0 246 27 229
6.38500881195068359 3.13090395927429199 0.0510626621544361115 255 0 246 27 229
6.35930156707763672 3.17335128784179688 0.0537315830588340759 255 0 246 27 229
6.36293554306030273 3.15918564796447754 0.0750240832567214966 255 0 246 27 229
6.07779598236083984 2.87336492538452148 0.0474423877894878387 255 0 246 27 229
6.17067193984985352 3.07258462905883789 0.0804470628499984741 255 0 246 27 229
6.0236659049987793 2.91419696807861328 0.0531445182859897614 255 0 246 27 229
6.15842723846435547 3.23379802703857422 0.0549493879079818726 255 0 246 27 229
6.12684917449951172 3.23566579818725586 0.0784863904118537903 255 0 246 27 229
6.17486429214477539 2.87522482872009277 0.05383329838514328 255 0 246 27 229
6.20199680328369141 2.92026734352111816 0.0757493600249290466 255 0 246 27 229
6.14980792999267578 2.9243474006652832 0.0735908001661300659 255 0 246 27 229
6.13482332229614258 2.88133835792541504 0.0533916093409061432 255 0 246 27 229
6.03988361358642578 2.97489666938781738 0.0816579833626747131 255 0 246 27 229
6.24449348449707031 3.15426087379455566 0.0794890671968460083 255 0 246 27 229
6.28574323654174805 3.18681693077087402 0.075514569878578186 255 0 246 27 229
6.31115150451660156 3.17998266220092773 0.0777998268604278564 255 0 246 27 229
6.16895198822021484 2.84717822074890137 0.0448315553367137909 255 0 246 27 229
6.22603559494018555 2.94102334976196289 0.0820342078804969788 255 0 246 27 229
6.32356739044189453 3.03768754005432129 0.0804664790630340576 255 0 246 27 229
6.12355995178222656 3.12755966186523438 0.08902721107006073 255 0 246 27 229
6.11948013305664062 3.1589205265045166 0.0837030857801437378 255 0 246 27 229
6.16887807846069336 3.13332056999206543 0.0838260352611541748 255 0 246 27 229
6.078582763671875 3.17758059501647949 0.0768804922699928284 255 0 246 27 229
6.25608205795288086 2.85529398918151855 0.0555812977254390717 255 0 246 27 229
6.26165151596069336 2.90804958343505859 0.077642686665058136 255 0 246 27 229
6.03462314605712891 3.04347586631774902 0.0761956200003623962 255 0 246 27 229
6.05118417739868164 3.03420495986938477 0.083458438515663147 255 0 246 27 229
6.05431795120239258 3.0923469066619873 0.0817496851086616516 255 0 246 27 229
6.30091142654418945 3.19167852401733398 0.0559777691960334778 255 0 246 27 229
6.34245491027832031 2.95339608192443848 0.0459085255861282349 255 0 246 27 229
6.1829218864440918 3.2066810131072998 0.0819805487990379333 255 0 246 27 229
6.19041347503662109 3.12926054000854492 0.0803267061710357666 255 0 246 27 229
6.20535516738891602 3.06823372840881348 0.0817100629210472107 255 0 246 27 229
6.21436977386474609 3.14758920669555664 0.0811317041516304016 255 0 246 27 229
6.15135431289672852 3.21874809265136719 0.0806022435426712036 255 0 246 27 229
6.23015594482421875 3.20831942558288574 0.0793166011571884155 255 0 246 27 229
6.31975030899047852 3.00388741493225098 0.0792598649859428406 255 0 246 27 229
6.26306390762329102 2.99255228042602539 0.0813385322690010071 255 0 246 27 229
