ply
format ascii 1.0
element vertex 258
property float x
property float y
property float z
property uchar red
property uchar green
property uchar blue
property uchar alpha
property uint label
end_header
2.18071460723876953 4.23390674591064453 0.389264971017837524 255 0 246 208 48
2.27488136291503906 4.42151451110839844 0.0988293662667274475 255 0 246 208 48
2.28407692909240723 4.42463588714599609 0.133549243211746216 255 0 246 208 48
2.30294299125671387 4.42470502853393555 0.124271951615810394 255 0 246 208 48
2.25960135459899902 4.43441152572631836 0.163125604391098022 255 0 246 208 48
2.27065491676330566 4.43330478668212891 0.277133792638778687 255 0 246 208 48
2.29879403114318848 4.43040990829467773 0.263079583644866943 255 0 246 208 48
2.32319879531860352 4.42187356948852539 0.312914133071899414 255 0 246 208 48
2.30057668685913086 4.40708494186401367 0.072130933403968811 255 0 246 208 48
2.39776730537414551 4.40075540542602539 0.105689354240894318 255 0 246 208 48
2.31954002380371094 4.42044544219970703 0.202645778656005859 255 0 246 208 48
2.35028433799743652 4.42347574234008789 0.169221073389053345 255 0 246 208 48
2.39008092880249023 4.42174768447875977 0.231892913579940796 255 0 246 208 48
2.36362123489379883 4.41991329193115234 0.298332631587982178 255 0 246 208 48
2.34007406234741211 4.41512537002563477 0.255540072917938232 255 0 246 208 48
2.34436798095703125 4.41761302947998047 0.341005414724349976 255 0 246 208 48
2.3497772216796875 4.41615104675292969 0.377047240734100342 255 0 246 208 48
2.3126068115234375 4.42893743515014648 0.372674345970153809 255 0 246 208 48
2.38943576812744141 4.39912939071655273 0.38916817307472229 255 0 246 208 48
2.42165088653564453 4.40868282318115234 0.371053159236907959 255 0 246 208 48
2.44310450553894043 4.40700149536132812 0.422679096460342407 255 0 246 208 48
2.2103726863861084 4.37085723876953125 0.388688355684280396 255 0 246 208 48
2.18570542335510254 4.36349201202392578 0.36924588680267334 255 0 246 208 48
2.19156074523925781 4.30508756637573242 0.377169609069824219 255 0 246 208 48
2.22355055809020996 4.35734081268310547 0.35789451003074646 255 0 246 208 48
2.2209925651550293 4.42331075668334961 0.102903351187705994 255 0 246 208 48
2.16710925102233887 4.38838577270507812 0.100505702197551727 255 0 246 208 48
2.19096279144287109 4.41242361068725586 0.105972059071063995 255 0 246 208 48
2.2071385383605957 4.42484283447265625 0.142728090286254883 255 0 246 208 48
2.17982101440429688 4.38657617568969727 0.0667904689908027649 255 0 246 208 48
2.25114321708679199 4.4218592643737793 0.0687157139182090759 255 0 246 208 48
2.42982292175292969 4.41503572463989258 0.346867293119430542 255 0 246 208 48
2.44291162490844727 4.41554021835327148 0.349875211715698242 255 0 246 208 48
2.38685107231140137 4.41653013229370117 0.359323024749755859 255 0 246 208 48
2.2540428638458252 4.36034250259399414 0.349642664194107056 255 0 246 208 48
2.23957133293151855 4.36672687530517578 0.389188468456268311 255 0 246 208 48
2.35493612289428711 4.37785720825195312 0.470773398876190186 255 0 246 208 48
2.3712623119354248 4.38233232498168945 0.445140749216079712 255 0 246 208 48
2.38524723052978516 4.38766288757324219 0.435695350170135498 255 0 246 208 48
2.34765958786010742 4.38352680206298828 0.41664007306098938 255 0 246 208 48
2.32353830337524414 4.38553142547607422 0.439448416233062744 255 0 246 208 48
2.12936997413635254 4.33529853820800781 0.140850484371185303 255 0 246 208 48
2.13543081283569336 4.37931203842163086 0.12523786723613739 255 0 246 208 48
2.16132354736328125 4.39385175704956055 0.149324536323547363 255 0 246 208 48
2.43984317779541016 4.41736888885498047 0.0691747590899467468 255 0 246 208 48
2.42633390426635742 4.41376399993896484 0.26193845272064209 255 0 246 208 48
2.41219186782836914 4.41987180709838867 0.328991800546646118 255 0 246 208 48
2.37723612785339355 4.38304376602172852 0.514549016952514648 255 0 246 208 48
2.33884382247924805 4.39108848571777344 0.0698173791170120239 255 0 246 208 48
2.21211791038513184 4.43487405776977539 0.179675057530403137 255 0 246 208 48
2.23940491676330566 4.43449115753173828 0.178201958537101746 255 0 246 208 48
2.21760129928588867 4.43730831146240234 0.202554792165756226 255 0 246 208 48
2.13463664054870605 4.29363632202148438 0.139055013656616211 255 0 246 208 48
2.12325763702392578 4.28333568572998047 0.0822285190224647522 255 0 246 208 48
2.12662053108215332 4.33181047439575195 0.0687729045748710632 255 0 246 208 48
2.14807534217834473 4.35711240768432617 0.0691000446677207947 255 0 246 208 48
2.14421319961547852 4.36474227905273438 0.416363805532455444 255 0 246 208 48
2.41264128684997559 4.39782047271728516 0.429816663265228271 255 0 246 208 48
2.44443082809448242 4.41320562362670898 0.233021244406700134 255 0 246 208 48
2.40416169166564941 4.41450786590576172 0.175858080387115479 255 0 246 208 48
2.4280097484588623 4.41489648818969727 0.162466347217559814 255 0 246 208 48
2.44747304916381836 4.42678165435791016 0.180498406291007996 255 0 246 208 48
2.26857519149780273 4.43209028244018555 0.220265284180641174 255 0 246 208 48
2.28076863288879395 4.4319915771484375 0.189012765884399414 255 0 246 208 48
2.24924063682556152 4.43257904052734375 0.222553998231887817 255 0 246 208 48
2.27030611038208008 4.42856168746948242 0.327625840902328491 255 0 246 208 48
2.31399917602539062 4.42468547821044922 0.39358443021774292 255 0 246 208 48
2.37250351905822754 4.41231298446655273 0.135262787342071533 255 0 246 208 48
2.4454350471496582 4.40824508666992188 0.142693787813186646 255 0 246 208 48
2.39191818237304688 4.39864921569824219 0.0716593489050865173 255 0 246 208 48
2.45000576972961426 4.41294240951538086 0.103272475302219391 255 0 246 208 48
2.15456771850585938 4.32429790496826172 0.417355716228485107 255 0 246 208 48
2.20912909507751465 4.37560319900512695 0.406621694564819336 255 0 246 208 48
2.17137360572814941 4.3649601936340332 0.393984049558639526 255 0 246 208 48
2.16407537460327148 4.30886077880859375 0.400893807411193848 255 0 246 208 48
2.18141627311706543 4.25653457641601562 0.407111376523971558 255 0 246 208 48
2.16811704635620117 4.29355573654174805 0.406742781400680542 255 0 246 208 48
2.20112514495849609 4.26715993881225586 0.38436928391456604 255 0 246 208 48
2.27856922149658203 4.37056636810302734 0.409702599048614502 255 0 246 208 48
2.30176663398742676 4.37835884094238281 0.460168927907943726 255 0 246 208 48
2.3245689868927002 4.36509943008422852 0.483138561248779297 255 0 246 208 48
2.24687552452087402 4.37554168701171875 0.42731437087059021 255 0 246 208 48
2.29813241958618164 4.38122701644897461 0.445323318243026733 255 0 246 208 48
2.35014986991882324 4.393157958984375 0.395560353994369507 255 0 246 208 48
2.21468162536621094 4.41458034515380859 0.0668713822960853577 255 0 246 208 48
2.36185312271118164 4.24035835266113281 0.0525705292820930481 255 0 246 208 48
2.33462142944335938 4.1782832145690918 0.0559803508222103119 255 0 246 208 48
2.34511518478393555 4.19976615905761719 0.0584213174879550934 255 0 246 208 48
2.36634087562561035 4.20173263549804688 0.107834100723266602 255 0 246 208 48
2.39299869537353516 4.24727439880371094 0.123001068830490112 255 0 246 208 48
2.34240961074829102 4.17377805709838867 0.136442303657531738 255 0 246 208 48
2.35632061958312988 4.23077154159545898 0.0672703161835670471 255 0 246 208 48
2.31711149215698242 4.27628040313720703 0.410097032785415649 255 0 246 208 48
2.27520489692687988 4.29205799102783203 0.442448168992996216 255 0 246 208 48
2.28233981132507324 4.25458192825317383 0.443016082048416138 255 0 246 208 48
2.29799795150756836 4.31430912017822266 0.430027246475219727 255 0 246 208 48
2.24204206466674805 4.28343868255615234 0.446364611387252808 255 0 246 208 48
2.3584589958190918 4.1901392936706543 0.192171826958656311 255 0 246 208 48
2.37205028533935547 4.20318698883056641 0.206155911087989807 255 0 246 208 48
2.35778546333312988 4.18963003158569336 0.21711103618144989 255 0 246 208 48
2.39194083213806152 4.28677606582641602 0.369188636541366577 255 0 246 208 48
2.40805649757385254 4.32063722610473633 0.328916102647781372 255 0 246 208 48
2.41925382614135742 4.33348321914672852 0.130835488438606262 255 0 246 208 48
2.43346118927001953 4.30271768569946289 0.165730774402618408 255 0 246 208 48
2.41764616966247559 4.26978015899658203 0.176505193114280701 255 0 246 208 48
2.40312480926513672 4.2381291389465332 0.227610155940055847 255 0 246 208 48
2.42184066772460938 4.26991367340087891 0.225567936897277832 255 0 246 208 48
2.42626810073852539 4.29771661758422852 0.224390804767608643 255 0 246 208 48
2.40168094635009766 4.23547267913818359 0.171578824520111084 255 0 246 208 48
2.26320433616638184 4.23199844360351562 0.435575962066650391 255 0 246 208 48
2.18613862991333008 4.08676719665527344 0.0654915496706962585 255 0 246 208 48
2.43033766746520996 4.3419194221496582 0.166613146662712097 255 0 246 208 48
2.42536377906799316 4.34198617935180664 0.213228479027748108 255 0 246 208 48
2.37374472618103027 4.25753641128540039 0.0697865858674049377 255 0 246 208 48
2.38551592826843262 4.29244756698608398 0.0677541866898536682 255 0 246 208 48
2.33218789100646973 4.30424213409423828 0.409285068511962891 255 0 246 208 48
2.31178617477416992 4.14648056030273438 0.0519584789872169495 255 0 246 208 48
2.25423431396484375 4.09985065460205078 0.0555682852864265442 255 0 246 208 48
2.32162117958068848 4.15766668319702148 0.0800878852605819702 255 0 246 208 48
2.35702395439147949 4.15375566482543945 0.196368604898452759 255 0 246 208 48
2.38293099403381348 4.29699850082397461 0.0522351451218128204 255 0 246 208 48
2.38060307502746582 4.33624553680419922 0.0691859051585197449 255 0 246 208 48
2.27965164184570312 4.11246156692504883 0.0752610936760902405 255 0 246 208 48
2.28627729415893555 4.11306667327880859 0.116177700459957123 255 0 246 208 48
2.31007504463195801 4.12713956832885742 0.0905163884162902832 255 0 246 208 48
2.29235172271728516 4.1202855110168457 0.0557079613208770752 255 0 246 208 48
2.24029922485351562 4.08953714370727539 0.129602983593940735 255 0 246 208 48
2.30118751525878906 4.11156558990478516 0.163977339863777161 255 0 246 208 48
2.34201622009277344 4.33414030075073242 0.399109214544296265 255 0 246 208 48
2.38311171531677246 4.33243179321289062 0.376118093729019165 255 0 246 208 48
2.38534379005432129 4.24883937835693359 0.356843769550323486 255 0 246 208 48
2.34020686149597168 4.24743795394897461 0.386592596769332886 255 0 246 208 48
2.33679771423339844 4.13968515396118164 0.133142396807670593 255 0 246 208 48
2.34562206268310547 4.14084243774414062 0.165438070893287659 255 0 246 208 48
2.22543454170227051 4.09563016891479492 0.0692135915160179138 255 0 246 208 48
2.42243409156799316 4.33389091491699219 0.262765437364578247 255 0 246 208 48
2.40712332725524902 4.26206159591674805 0.334791034460067749 255 0 246 208 48
2.41157269477844238 4.29489946365356445 0.306782752275466919 255 0 246 208 48
2.4213099479675293 4.26991939544677734 0.266174435615539551 255 0 246 208 48
2.36843657493591309 4.21474742889404297 0.301653653383255005 255 0 246 208 48
2.40232348442077637 4.24193382263183594 0.304459929466247559 255 0 246 208 48
2.30910181999206543 4.17253446578979492 0.282259583473205566 255 0 246 208 48
2.35842776298522949 4.20573997497558594 0.254131346940994263 255 0 246 208 48
2.41411089897155762 4.27682113647460938 0.11913377046585083 255 0 246 208 48
2.42580866813659668 4.2839813232421875 0.148385271430015564 255 0 246 208 48
2.41890263557434082 4.29847049713134766 0.12167753279209137 255 0 246 208 48
2.31504344940185547 4.24165487289428711 0.427387624979019165 255 0 246 208 48
2.37234306335449219 4.26867198944091797 0.378779977560043335 255 0 246 208 48
2.17490243911743164 4.04893636703491211 0.0761315301060676575 255 0 246 208 48
2.21621060371398926 4.34974527359008789 0.450016617774963379 255 0 246 208 48
2.18823146820068359 4.3683171272277832 0.43105018138885498 255 0 246 208 48
2.18863773345947266 4.32951927185058594 0.439435988664627075 255 0 246 208 48
2.16663241386413574 4.35459280014038086 0.433080196380615234 255 0 246 208 48
2.21190905570983887 4.31201457977294922 0.445633381605148315 255 0 246 208 48
2.2241668701171875 4.24436426162719727 0.430966049432754517 255 0 246 208 48
2.20568227767944336 4.28899002075195312 0.435907870531082153 255 0 246 208 48
2.26952981948852539 4.31810188293457031 0.448274195194244385 255 0 246 208 48
2.30475687980651855 4.34258651733398438 0.413578540086746216 255 0 246 208 48
2.2405400276184082 4.32145833969116211 0.452870845794677734 255 0 246 208 48
2.28198385238647461 4.34652805328369141 0.439256131649017334 255 0 246 208 48
2.24918723106384277 4.35505390167236328 0.45049402117729187 255 0 246 208 48
2.26838159561157227 4.36331033706665039 0.455449610948562622 255 0 246 208 48
2.38095903396606445 4.22850322723388672 0.331994980573654175 255 0 246 208 48
2.35619187355041504 4.21848773956298828 0.355445653200149536 255 0 246 208 48
2.35289764404296875 4.19646406173706055 0.337434738874435425 255 0 246 208 48
2.32964658737182617 4.21021938323974609 0.392137855291366577 255 0 246 208 48
2.20103573799133301 4.05913257598876953 0.108731396496295929 255 0 246 208 48
2.24071431159973145 4.40484189987182617 0.281322211027145386 255 0 246 208 48
2.23497200012207031 4.42082929611206055 0.246298179030418396 255 0 246 208 48
2.24021196365356445 4.20515871047973633 0.215185016393661499 255 0 246 208 48
2.23486828804016113 4.16481161117553711 0.146071642637252808 255 0 246 208 48
2.23562955856323242 4.19374227523803711 0.17872367799282074 255 0 246 208 48
2.2672584056854248 4.23213100433349609 0.274599611759185791 255 0 246 208 48
2.19521760940551758 4.33524751663208008 0.355446964502334595 255 0 246 208 48
2.24755263328552246 4.23119258880615234 0.20897810161113739 255 0 246 208 48
2.27954530715942383 4.41301536560058594 0.380292147397994995 255 0 246 208 48
2.2628169059753418 4.35510826110839844 0.323463261127471924 255 0 246 208 48
2.25529885292053223 4.39032411575317383 0.323216289281845093 255 0 246 208 48
2.25180792808532715 4.34444379806518555 0.341576308012008667 255 0 246 208 48
2.2397153377532959 4.31550216674804688 0.351055324077606201 255 0 246 208 48
2.2682349681854248 4.36888313293457031 0.346242040395736694 255 0 246 208 48
2.27816081047058105 4.37889242172241211 0.375290185213088989 255 0 246 208 48
2.22095108032226562 4.35929298400878906 0.254181772470474243 255 0 246 208 48
2.24916291236877441 4.35418987274169922 0.293992191553115845 255 0 246 208 48
2.13840198516845703 4.34783363342285156 0.167954429984092712 255 0 246 208 48
2.18458676338195801 4.41104841232299805 0.176284641027450562 255 0 246 208 48
2.21768569946289062 4.38716554641723633 0.239861041307449341 255 0 246 208 48
2.14548349380493164 4.29344558715820312 0.148981913924217224 255 0 246 208 48
2.18265938758850098 4.232025146484375 0.124577045440673828 255 0 246 208 48
2.19055366516113281 4.20050191879272461 0.11772630363702774 255 0 246 208 48
2.26862573623657227 4.29787206649780273 0.327041894197463989 255 0 246 208 48
2.27037239074707031 4.3164525032043457 0.308181136846542358 255 0 246 208 48
2.23365402221679688 4.20923662185668945 0.169848829507827759 255 0 246 208 48
2.26689910888671875 4.23420143127441406 0.255944699048995972 255 0 246 208 48
2.23263430595397949 4.26033592224121094 0.20275549590587616 255 0 246 208 48
2.27324914932250977 4.2615203857421875 0.303610175848007202 255 0 246 208 48
2.2071833610534668 4.27860450744628906 0.169610157608985901 255 0 246 208 48
2.25783467292785645 4.4122772216796875 0.324703395366668701 255 0 246 208 48
2.19073748588562012 4.29961252212524414 0.152339249849319458 255 0 246 208 48
2.17754697799682617 4.26429462432861328 0.129718929529190063 255 0 246 208 48
2.19505071640014648 4.21889162063598633 0.125318780541419983 255 0 246 208 48
2.20637965202331543 4.36532783508300781 0.210292860865592957 255 0 246 208 48
2.18943142890930176 4.3450779914855957 0.164542227983474731 255 0 246 208 48
2.16070556640625 4.36110496520996094 0.16631413996219635 255 0 246 208 48
2.17803072929382324 4.3927006721496582 0.175533086061477661 255 0 246 208 48
2.17144036293029785 4.3195652961730957 0.150225281715393066 255 0 246 208 48
2.20102882385253906 4.3965764045715332 0.202127858996391296 255 0 246 208 48
2.30603861808776855 4.39110040664672852 0.429639905691146851 255 0 246 208 48
2.16705870628356934 4.15957736968994141 0.316785752773284912 255 0 246 208 48
2.22245979309082031 4.18919086456298828 0.348787665367126465 255 0 246 208 48
2.21330451965332031 4.19947433471679688 0.386333942413330078 255 0 246 208 48
2.17463469505310059 4.17255020141601562 0.357046395540237427 255 0 246 208 48
2.18015933036804199 4.18683147430419922 0.373272359371185303 255 0 246 208 48
2.18949484825134277 4.17995071411132812 0.332591205835342407 255 0 246 208 48
2.17491936683654785 4.11568689346313477 0.219282537698745728 255 0 246 208 48
2.23094487190246582 4.1000981330871582 0.171011984348297119 255 0 246 208 48
2.21598052978515625 4.11855220794677734 0.207177147269248962 255 0 246 208 48
2.06564450263977051 4.06670045852661133 0.065593816339969635 255 0 246 208 48
2.30234503746032715 4.22711896896362305 0.4282054603099823 255 0 246 208 48
2.27395749092102051 4.16405868530273438 0.293725043535232544 255 0 246 208 48
2.28867983818054199 4.16226959228515625 0.265744060277938843 255 0 246 208 48
2.2138206958770752 4.17608308792114258 0.294778913259506226 255 0 246 208 48
2.24068593978881836 4.20542526245117188 0.39007154107093811 255 0 246 208 48
2.2352442741394043 4.08713722229003906 0.147394195199012756 255 0 246 208 48
2.14911699295043945 4.07495832443237305 0.134133443236351013 255 0 246 208 48
2.12581658363342285 4.08604669570922852 0.134150147438049316 255 0 246 208 48
2.14389705657958984 4.08676004409790039 0.151690676808357239 255 0 246 208 48
2.11090183258056641 4.07207727432250977 0.0955523848533630371 255 0 246 208 48
2.23116946220397949 4.21574783325195312 0.409906506538391113 255 0 246 208 48
2.20491385459899902 4.21935606002807617 0.400906264781951904 255 0 246 208 48
2.34709429740905762 4.14701271057128906 0.218197628855705261 255 0 246 208 48
2.31233501434326172 4.13799238204956055 0.240037903189659119 255 0 246 208 48
2.10033702850341797 4.13707780838012695 0.258105695247650146 255 0 246 208 48
2.2871100902557373 4.13357782363891602 0.236285790801048279 255 0 246 208 48
2.29806327819824219 4.11749744415283203 0.19794057309627533 255 0 246 208 48
2.12633371353149414 4.11755275726318359 0.209340602159500122 255 0 246 208 48
2.13467979431152344 4.10241603851318359 0.181362107396125793 255 0 246 208 48
2.12811779975891113 4.12724971771240234 0.231224671006202698 255 0 246 208 48
2.10019731521606445 4.12736940383911133 0.219526350498199463 255 0 246 208 48
2.09680008888244629 4.03612184524536133 0.0548668652772903442 255 0 246 208 48
2.09520864486694336 4.05967473983764648 0.0731657296419143677 255 0 246 208 48
2.15135073661804199 4.04995393753051758 0.0919453352689743042 255 0 246 208 48
2.18687343597412109 4.16012763977050781 0.275421231985092163 255 0 246 208 48
2.21972370147705078 4.15193080902099609 0.254671871662139893 255 0 246 208 48
2.1710972785949707 4.13273859024047852 0.247666448354721069 255 0 246 208 48
2.15681743621826172 4.13822698593139648 0.27228584885597229 255 0 246 208 48
2.20900368690490723 4.14126920700073242 0.229524612426757812 255 0 246 208 48
2.31982159614562988 4.17688417434692383 0.329219728708267212 255 0 246 208 48
2.33033347129821777 4.1747746467590332 0.246086180210113525 255 0 246 208 48
2.28851747512817383 4.18988132476806641 0.367995679378509521 255 0 246 208 48
2.30684709548950195 4.19869613647460938 0.39084392786026001 255 0 246 208 48
2.32883477210998535 4.19515752792358398 0.366604089736938477 255 0 246 208 48
2.25203776359558105 4.17368316650390625 0.311242014169692993 255 0 246 208 48
2.14185166358947754 4.15252304077148438 0.317662626504898071 255 0 246 208 48
2.11346793174743652 4.1554560661315918 0.311863988637924194 255 0 246 208 48
2.14140844345092773 4.17971658706665039 0.352051794528961182 255 0 246 208 48
2.20703935623168945 4.06414175033569336 0.138443589210510254 255 0 246 208 48
2.19702792167663574 4.09018230438232422 0.174138396978378296 255 0 246 208 48
