ply
format ascii 1.0
element vertex 201
property float x
property float y
property float z
property uchar red
property uchar green
property uchar blue
property uchar alpha
property uint label
end_header
6.39858579635620117 5.83055877685546875 0.0771931037306785583 0 0 255 244 12
6.39601039886474609 5.83313512802124023 0.173506781458854675 0 0 255 244 12
6.37019252777099609 5.87593936920166016 0.0776611790060997009 0 0 255 244 12
6.37092399597167969 5.87942838668823242 0.115234710276126862 0 0 255 244 12
6.34116935729980469 5.96499967575073242 0.262499988079071045 0 0 255 244 12
6.33601951599121094 5.97999954223632812 0.327499985694885254 0 0 255 244 12
6.34439229965209961 5.99980783462524414 0.280351728200912476 0 0 255 244 12
6.45304965972900391 5.79441642761230469 0.0851149335503578186 0 0 255 244 12
6.39166831970214844 5.84075689315795898 0.117985881865024567 0 0 255 244 12
6.42606592178344727 5.80254888534545898 0.137823373079299927 0 0 255 244 12
6.40887928009033203 5.81675529479980469 0.127922371029853821 0 0 255 244 12
6.4574885368347168 5.78899478912353516 0.175125777721405029 0 0 255 244 12
6.42953729629516602 5.80194854736328125 0.0763117074966430664 0 0 255 244 12
6.42837810516357422 5.79916667938232422 0.172904700040817261 0 0 255 244 12
6.42940855026245117 5.76263999938964844 0.42580115795135498 0 0 255 244 12
6.4403223991394043 5.77122068405151367 0.391236692667007446 0 0 255 244 12
6.38312053680419922 5.83689355850219727 0.392352908849716187 0 0 255 244 12
6.3933720588684082 5.83044767379760742 0.28321230411529541 0 0 255 244 12
6.42198276519775391 5.79759120941162109 0.246492505073547363 0 0 255 244 12
6.41085720062255859 5.80284595489501953 0.300964564085006714 0 0 255 244 12
6.45569086074829102 5.78037595748901367 0.265951454639434814 0 0 255 244 12
6.43162775039672852 5.78568649291992188 0.290755182504653931 0 0 255 244 12
6.41243267059326172 6.08955049514770508 0.0837071239948272705 0 0 255 244 12
6.42841100692749023 6.10387754440307617 0.0990850552916526794 0 0 255 244 12
6.41601228713989258 6.09467887878417969 0.140080735087394714 0 0 255 244 12
6.34534549713134766 6.07768630981445312 0.405138939619064331 0 0 255 244 12
6.52252292633056641 5.79355049133300781 0.271477639675140381 0 0 255 244 12
6.49006509780883789 5.77899646759033203 0.261574745178222656 0 0 255 244 12
6.51541996002197266 5.78376388549804688 0.301875084638595581 0 0 255 244 12
6.48867893218994141 5.77006387710571289 0.313122361898422241 0 0 255 244 12
6.50319433212280273 5.80001258850097656 0.13856080174446106 0 0 255 244 12
6.49393081665039062 5.78551721572875977 0.204585641622543335 0 0 255 244 12
6.52579784393310547 5.80537748336791992 0.186779305338859558 0 0 255 244 12
6.47430181503295898 5.78909492492675781 0.167343690991401672 0 0 255 244 12
6.53477191925048828 5.81346845626831055 0.171325355768203735 0 0 255 244 12
6.51622295379638672 5.79230451583862305 0.258870840072631836 0 0 255 244 12
6.53357172012329102 5.80852890014648438 0.224820464849472046 0 0 255 244 12
6.35619735717773438 5.99831676483154297 0.160474449396133423 0 0 255 244 12
6.37431240081787109 6.04439544677734375 0.233292028307914734 0 0 255 244 12
6.38054990768432617 6.04500627517700195 0.177048757672309875 0 0 255 244 12
6.37149620056152344 6.02731180191040039 0.161938369274139404 0 0 255 244 12
6.34603786468505859 5.97999954223632812 0.200852364301681519 0 0 255 244 12
6.3897862434387207 6.06685018539428711 0.226180672645568848 0 0 255 244 12
6.38988256454467773 6.05025053024291992 0.12292027473449707 0 0 255 244 12
6.46756219863891602 5.76305484771728516 0.385111898183822632 0 0 255 244 12
6.47556972503662109 5.74392032623291016 0.430851250886917114 0 0 255 244 12
6.35969829559326172 5.88378190994262695 0.420128762722015381 0 0 255 244 12
6.37814617156982422 5.8630828857421875 0.176385402679443359 0 0 255 244 12
6.40658664703369141 5.81353139877319336 0.228731110692024231 0 0 255 244 12
6.35163736343383789 5.91462850570678711 0.0730868950486183167 0 0 255 244 12
6.54001283645629883 5.78920507431030273 0.369615286588668823 0 0 255 244 12
6.49255180358886719 5.76058864593505859 0.389010637998580933 0 0 255 244 12
6.52345609664916992 5.78020954132080078 0.349462836980819702 0 0 255 244 12
6.32685995101928711 5.96044111251831055 0.425437420606613159 0 0 255 244 12
6.34551525115966797 5.91156387329101562 0.426088333129882812 0 0 255 244 12
6.46881628036499023 5.79384374618530273 0.0826296508312225342 0 0 255 244 12
6.50052499771118164 5.79983711242675781 0.0801400169730186462 0 0 255 244 12
6.35443639755249023 5.91942977905273438 0.180937498807907104 0 0 255 244 12
6.34620380401611328 5.94651699066162109 0.219503283500671387 0 0 255 244 12
6.34090995788574219 5.97999954223632812 0.268124997615814209 0 0 255 244 12
6.37658786773681641 6.0534825325012207 0.253141880035400391 0 0 255 244 12
6.34772729873657227 6.02899885177612305 0.358722448348999023 0 0 255 244 12
6.36125516891479492 6.02763700485229492 0.255569368600845337 0 0 255 244 12
6.44685459136962891 5.7760472297668457 0.320851534605026245 0 0 255 244 12
6.40845155715942383 5.7961883544921875 0.396387457847595215 0 0 255 244 12
6.42225551605224609 5.79088068008422852 0.336175501346588135 0 0 255 244 12
6.34844827651977539 5.94874954223632812 0.142499998211860657 0 0 255 244 12
6.350616455078125 5.97281455993652344 0.091784946620464325 0 0 255 244 12
6.35281562805175781 5.92635631561279297 0.0871386677026748657 0 0 255 244 12
6.35177040100097656 5.97683095932006836 0.140008524060249329 0 0 255 244 12
6.32103681564331055 6.00742197036743164 0.428910136222839355 0 0 255 244 12
6.32503700256347656 6.00685834884643555 0.415642917156219482 0 0 255 244 12
6.39327049255371094 6.09261846542358398 0.286078184843063354 0 0 255 244 12
6.37367439270019531 6.02436113357543945 0.0945600271224975586 0 0 255 244 12
6.36615610122680664 6.00807952880859375 0.121769994497299194 0 0 255 244 12
6.5291285514831543 5.77588415145874023 0.397956758737564087 0 0 255 244 12
6.39212512969970703 5.82689428329467773 0.344753623008728027 0 0 255 244 12
6.52181673049926758 5.76060104370117188 0.426556229591369629 0 0 255 244 12
6.3457188606262207 5.92061185836791992 0.394197225570678711 0 0 255 244 12
6.37310600280761719 5.86530065536499023 0.394567698240280151 0 0 255 244 12
6.37280941009521484 5.87318086624145508 0.343221843242645264 0 0 255 244 12
6.36808347702026367 5.88570976257324219 0.215567648410797119 0 0 255 244 12
6.38674306869506836 5.84538745880126953 0.251829475164413452 0 0 255 244 12
6.38172817230224609 5.85770559310913086 0.291043937206268311 0 0 255 244 12
6.34881925582885742 5.92749977111816406 0.272499978542327881 0 0 255 244 12
6.35009765625 5.92000007629394531 0.342500001192092896 0 0 255 244 12
6.34057426452636719 5.94940090179443359 0.343648791313171387 0 0 255 244 12
6.33176469802856445 5.9658818244934082 0.390037477016448975 0 0 255 244 12
6.40584182739257812 6.0949859619140625 0.212576314806938171 0 0 255 244 12
6.54585027694702148 5.80260372161865234 0.0603423304855823517 0 0 255 244 12
6.53589200973510742 5.81673669815063477 0.0844462141394615173 0 0 255 244 12
6.38628053665161133 6.09462451934814453 0.325556069612503052 0 0 255 244 12
6.33363246917724609 6.00444984436035156 0.383209168910980225 0 0 255 244 12
6.37457799911499023 6.08031129837036133 0.35623815655708313 0 0 255 244 12
6.34744071960449219 5.95534658432006836 0.075628034770488739 0 0 255 244 12
6.34930658340454102 5.99593544006347656 0.0732434689998626709 0 0 255 244 12
6.55939626693725586 5.8352813720703125 0.143903627991676331 0 0 255 244 12
6.54304027557373047 5.82313728332519531 0.141518205404281616 0 0 255 244 12
6.56681203842163086 5.84018135070800781 0.191125422716140747 0 0 255 244 12
6.60214900970458984 5.84659862518310547 0.0649343207478523254 0 0 255 244 12
6.56837272644042969 5.84638643264770508 0.127284854650497437 0 0 255 244 12
6.62159109115600586 5.89779806137084961 0.0912490859627723694 0 0 255 244 12
6.58094358444213867 5.84362554550170898 0.0817712545394897461 0 0 255 244 12
6.59757661819458008 5.87830924987792969 0.108963429927825928 0 0 255 244 12
6.56417989730834961 5.79658651351928711 0.401977211236953735 0 0 255 244 12
6.59232759475708008 5.82296657562255859 0.398395925760269165 0 0 255 244 12
6.50284194946289062 6.07429933547973633 0.353330284357070923 0 0 255 244 12
6.47537517547607422 6.09244918823242188 0.399778515100479126 0 0 255 244 12
6.54013824462890625 6.06127119064331055 0.425614088773727417 0 0 255 244 12
6.55163288116455078 6.0082402229309082 0.307236045598983765 0 0 255 244 12
6.53085899353027344 6.03803873062133789 0.30453115701675415 0 0 255 244 12
6.52161645889282227 6.06120729446411133 0.317638397216796875 0 0 255 244 12
6.4642786979675293 6.12766551971435547 0.389300495386123657 0 0 255 244 12
6.45302343368530273 6.08610630035400391 0.381126314401626587 0 0 255 244 12
6.476318359375 6.09968233108520508 0.434916585683822632 0 0 255 244 12
6.48818540573120117 6.07772207260131836 0.325349986553192139 0 0 255 244 12
6.52706718444824219 6.06651735305786133 0.396740227937698364 0 0 255 244 12
6.52923917770385742 6.05317592620849609 0.345032304525375366 0 0 255 244 12
6.46930170059204102 6.11651420593261719 0.41739886999130249 0 0 255 244 12
6.58156919479370117 5.91705131530761719 0.357274830341339111 0 0 255 244 12
6.58622026443481445 5.88300514221191406 0.345650553703308105 0 0 255 244 12
6.57380533218383789 5.88179111480712891 0.373719900846481323 0 0 255 244 12
6.55901956558227539 6.00508785247802734 0.409931361675262451 0 0 255 244 12
6.58411455154418945 5.95029735565185547 0.413589537143707275 0 0 255 244 12
6.55611991882324219 5.99245500564575195 0.348590999841690063 0 0 255 244 12
6.60665273666381836 5.89417076110839844 0.415088862180709839 0 0 255 244 12
6.59449100494384766 5.87948942184448242 0.390469014644622803 0 0 255 244 12
6.5538787841796875 5.97774696350097656 0.308686137199401855 0 0 255 244 12
6.57338953018188477 5.95789098739624023 0.358621031045913696 0 0 255 244 12
6.5915074348449707 5.91187572479248047 0.383527368307113647 0 0 255 244 12
6.57981300354003906 5.93907594680786133 0.34158053994178772 0 0 255 244 12
6.57121562957763672 5.95039176940917969 0.318628162145614624 0 0 255 244 12
6.55115079879760742 6.0315704345703125 0.392035901546478271 0 0 255 244 12
6.55323886871337891 6.01561927795410156 0.329672932624816895 0 0 255 244 12
6.47246170043945312 6.12178659439086914 0.445609986782073975 0 0 255 244 12
6.51650667190551758 6.1160130500793457 0.435793697834014893 0 0 255 244 12
6.51378202438354492 6.08472251892089844 0.43100208044052124 0 0 255 244 12
6.49641561508178711 6.13453435897827148 0.443741202354431152 0 0 255 244 12
6.58461236953735352 6.02834939956665039 0.426289379596710205 0 0 255 244 12
6.60562038421630859 6.05294990539550781 0.420729249715805054 0 0 255 244 12
6.5586695671081543 6.03646373748779297 0.427223026752471924 0 0 255 244 12
6.54673480987548828 6.06442499160766602 0.433409720659255981 0 0 255 244 12
6.58081436157226562 6.07620048522949219 0.426241368055343628 0 0 255 244 12
6.64896965026855469 5.85262012481689453 0.415718615055084229 0 0 255 244 12
6.69255638122558594 5.87798595428466797 0.404081642627716064 0 0 255 244 12
6.67857980728149414 5.90404796600341797 0.419402152299880981 0 0 255 244 12
6.57236814498901367 6.00028276443481445 0.427055448293685913 0 0 255 244 12
6.56877279281616211 6.16429424285888672 0.422895848751068115 0 0 255 244 12
6.67024660110473633 5.95255613327026367 0.424995481967926025 0 0 255 244 12
6.64502716064453125 6.12028408050537109 0.398014098405838013 0 0 255 244 12
6.65194320678710938 6.09881925582885742 0.412830710411071777 0 0 255 244 12
6.61607503890991211 5.84337425231933594 0.426895439624786377 0 0 255 244 12
6.61662435531616211 5.89728164672851562 0.426123142242431641 0 0 255 244 12
6.60266351699829102 6.16513299942016602 0.404743015766143799 0 0 255 244 12
6.55902957916259766 6.0886225700378418 0.429434150457382202 0 0 255 244 12
6.58109760284423828 6.14719295501708984 0.413221478462219238 0 0 255 244 12
6.58028554916381836 6.10503816604614258 0.420171588659286499 0 0 255 244 12
6.62679195404052734 6.09278726577758789 0.410706073045730591 0 0 255 244 12
6.64140558242797852 5.96239948272705078 0.425645887851715088 0 0 255 244 12
6.63495206832885742 6.0458378791809082 0.419538944959640503 0 0 255 244 12
6.657745361328125 6.00087308883666992 0.425324052572250366 0 0 255 244 12
6.62811708450317383 6.14737224578857422 0.391096353530883789 0 0 255 244 12
6.70887184143066406 5.86964845657348633 0.385352283716201782 0 0 255 244 12
6.63326740264892578 6.16876363754272461 0.382605493068695068 0 0 255 244 12
6.65590095520019531 6.15283966064453125 0.368797183036804199 0 0 255 244 12
6.41991710662841797 5.79878902435302734 0.427133530378341675 0 0 255 244 12
6.46075630187988281 5.78558254241943359 0.427139133214950562 0 0 255 244 12
6.43996191024780273 5.76375961303710938 0.433462858200073242 0 0 255 244 12
6.40598344802856445 5.99680089950561523 0.389100074768066406 0 0 255 244 12
6.4322657585144043 5.99512195587158203 0.36829984188079834 0 0 255 244 12
6.42631053924560547 6.07152748107910156 0.379364192485809326 0 0 255 244 12
6.42556667327880859 6.02644824981689453 0.367250561714172363 0 0 255 244 12
6.4300074577331543 6.06002473831176758 0.354879766702651978 0 0 255 244 12
6.37357187271118164 5.84424209594726562 0.425038337707519531 0 0 255 244 12
6.51695442199707031 5.86549758911132812 0.377424001693725586 0 0 255 244 12
6.54766845703125 5.85823774337768555 0.379617244005203247 0 0 255 244 12
6.39204835891723633 5.91782379150390625 0.40869516134262085 0 0 255 244 12
6.36325216293334961 5.91512298583984375 0.420899361371994019 0 0 255 244 12
6.37827253341674805 5.97089004516601562 0.408506304025650024 0 0 255 244 12
6.33598947525024414 5.99123382568359375 0.427593618631362915 0 0 255 244 12
6.35801982879638672 6.02771663665771484 0.417734473943710327 0 0 255 244 12
6.39019680023193359 6.06265020370483398 0.401224881410598755 0 0 255 244 12
6.37047338485717773 6.00391960144042969 0.410442620515823364 0 0 255 244 12
6.38462209701538086 6.02452182769775391 0.402553051710128784 0 0 255 244 12
6.33046865463256836 6.04298877716064453 0.435208559036254883 0 0 255 244 12
6.53534221649169922 5.82223367691040039 0.409781962633132935 0 0 255 244 12
6.45095491409301758 5.80494451522827148 0.419227689504623413 0 0 255 244 12
6.51635360717773438 5.80282831192016602 0.419895708560943604 0 0 255 244 12
6.49742984771728516 5.76153421401977539 0.434506624937057495 0 0 255 244 12
6.43254852294921875 6.11277103424072266 0.383235901594161987 0 0 255 244 12
6.44663238525390625 6.08150386810302734 0.348830878734588623 0 0 255 244 12
6.45290279388427734 6.07557344436645508 0.334632635116577148 0 0 255 244 12
6.40211915969848633 6.04020404815673828 0.391646683216094971 0 0 255 244 12
6.39541053771972656 6.08519411087036133 0.400306731462478638 0 0 255 244 12
6.40020084381103516 5.7939915657043457 0.424968928098678589 0 0 255 244 12
6.40171003341674805 5.88034486770629883 0.412581592798233032 0 0 255 244 12
6.41543054580688477 5.84577846527099609 0.416554659605026245 0 0 255 244 12
6.5572662353515625 5.8530430793762207 0.363842993974685669 0 0 255 244 12
6.5598297119140625 5.80014419555664062 0.414845794439315796 0 0 255 244 12
6.59071159362792969 5.82789850234985352 0.405611366033554077 0 0 255 244 12
6.53984212875366211 5.84100866317749023 0.39703291654586792 0 0 255 244 12
