ply
format ascii 1.0
element vertex 269
property float x
property float y
property float z
property uchar red
property uchar green
property uchar blue
property uchar alpha
property uint label
end_header
4.88794898986816406 1.16603958606719971 1.13585972785949707 98 14 0 243 13
5.31441020965576172 1.25426983833312988 0.866208910942077637 98 14 0 243 13
5.29488182067871094 1.23617160320281982 0.903052210807800293 98 14 0 243 13
5.30861330032348633 1.24090766906738281 0.884950339794158936 98 14 0 243 13
5.33610391616821289 1.23744440078735352 0.870006442070007324 98 14 0 243 13
5.27879095077514648 1.24010598659515381 0.890671312808990479 98 14 0 243 13
5.32034921646118164 1.22315287590026855 0.906179428100585938 98 14 0 243 13
5.28160810470581055 1.2114260196685791 0.924913763999938965 98 14 0 243 13
4.8200373649597168 1.3468555212020874 0.87904810905456543 98 14 0 243 13
4.80753326416015625 1.32127034664154053 0.952211081981658936 98 14 0 243 13
4.85036039352416992 1.34715986251831055 0.946806609630584717 98 14 0 243 13
4.73154783248901367 1.25215089321136475 0.961047887802124023 98 14 0 243 13
4.76596593856811523 1.23140907287597656 1.04887950420379639 98 14 0 243 13
4.73816776275634766 1.21805810928344727 1.02302908897399902 98 14 0 243 13
4.79905319213867188 1.27070724964141846 1.030692458152771 98 14 0 243 13
4.76037025451660156 1.26352596282958984 0.992037177085876465 98 14 0 243 13
5.00753355026245117 1.11198711395263672 1.15897548198699951 98 14 0 243 13
5.0156865119934082 1.41492688655853271 0.887291967868804932 98 14 0 243 13
5.00554323196411133 1.40723514556884766 0.920548379421234131 98 14 0 243 13
4.7797398567199707 1.29596197605133057 0.96562957763671875 98 14 0 243 13
4.80619144439697266 1.18463778495788574 1.13060605525970459 98 14 0 243 13
4.84780693054199219 1.35698246955871582 0.828355133533477783 98 14 0 243 13
4.86750507354736328 1.37311637401580811 0.868160367012023926 98 14 0 243 13
4.75574922561645508 1.02529275417327881 1.11332929134368896 98 14 0 243 13
4.78544187545776367 1.07817232608795166 1.16700363159179688 98 14 0 243 13
4.72911214828491211 1.05413162708282471 1.11439919471740723 98 14 0 243 13
4.73498392105102539 1.06609654426574707 1.13403832912445068 98 14 0 243 13
5.08125972747802734 1.15298283100128174 1.1548081636428833 98 14 0 243 13
5.09355020523071289 1.13288605213165283 1.16566848754882812 98 14 0 243 13
4.79224491119384766 1.04501450061798096 1.17693734169006348 98 14 0 243 13
4.86728715896606445 1.03627419471740723 1.1893470287322998 98 14 0 243 13
4.82676029205322266 1.06070423126220703 1.17756462097167969 98 14 0 243 13
4.87216424942016602 1.07525920867919922 1.17136085033416748 98 14 0 243 13
4.80734062194824219 1.12507820129394531 1.16125035285949707 98 14 0 243 13
5.24169921875 1.28447175025939941 0.934652864933013916 98 14 0 243 13
5.22266197204589844 1.3414531946182251 0.936185359954833984 98 14 0 243 13
5.20674657821655273 1.31368839740753174 0.959621131420135498 98 14 0 243 13
4.69495916366577148 1.17700326442718506 0.974086105823516846 98 14 0 243 13
4.71779155731201172 1.21331703662872314 0.983259439468383789 98 14 0 243 13
4.7351689338684082 1.05826449394226074 0.944992244243621826 98 14 0 243 13
4.74991989135742188 1.03527486324310303 0.921736180782318115 98 14 0 243 13
4.94326114654541016 1.19644808769226074 1.13148021697998047 98 14 0 243 13
5.28768777847290039 1.34117913246154785 0.854619681835174561 98 14 0 243 13
5.303253173828125 1.30186057090759277 0.86032480001449585 98 14 0 243 13
5.31794118881225586 1.32791244983673096 0.861971735954284668 98 14 0 243 13
5.35718727111816406 1.25192999839782715 0.837413012981414795 98 14 0 243 13
5.34554529190063477 1.26591634750366211 0.84341806173324585 98 14 0 243 13
5.33503055572509766 1.26573324203491211 0.855208694934844971 98 14 0 243 13
5.18020009994506836 1.22550559043884277 1.10201001167297363 98 14 0 243 13
5.1414952278137207 1.26970529556274414 1.09092319011688232 98 14 0 243 13
5.19022941589355469 1.25268149375915527 1.0527186393737793 98 14 0 243 13
4.9566187858581543 1.16948068141937256 1.14452850818634033 98 14 0 243 13
5.01600265502929688 1.1598052978515625 1.14266633987426758 98 14 0 243 13
4.95401287078857422 1.09728634357452393 1.16427910327911377 98 14 0 243 13
5.14488077163696289 1.28454601764678955 1.06565201282501221 98 14 0 243 13
5.1902165412902832 1.29386639595031738 0.994662225246429443 98 14 0 243 13
5.17270040512084961 1.33961057662963867 0.965595364570617676 98 14 0 243 13
5.12813854217529297 1.33392930030822754 1.00228071212768555 98 14 0 243 13
5.15897321701049805 1.29871869087219238 1.03537893295288086 98 14 0 243 13
5.13369369506835938 1.36574864387512207 0.959482133388519287 98 14 0 243 13
5.16189289093017578 1.32230246067047119 0.993616342544555664 98 14 0 243 13
4.98699140548706055 1.37154960632324219 0.987548410892486572 98 14 0 243 13
5.04656600952148438 1.32183933258056641 1.05500507354736328 98 14 0 243 13
4.97117233276367188 1.29019725322723389 1.07815921306610107 98 14 0 243 13
5.0167546272277832 1.26783585548400879 1.10446548461914062 98 14 0 243 13
4.99221324920654297 1.31133723258972168 1.06315159797668457 98 14 0 243 13
4.77673435211181641 1.33057785034179688 0.897776782512664795 98 14 0 243 13
4.7499089241027832 1.29505860805511475 0.928047895431518555 98 14 0 243 13
4.80982303619384766 1.29934465885162354 0.988309144973754883 98 14 0 243 13
4.83528804779052734 1.30552077293395996 1.01147675514221191 98 14 0 243 13
4.80955171585083008 1.00526535511016846 1.20903861522674561 98 14 0 243 13
5.31659793853759766 1.37860560417175293 0.861472606658935547 98 14 0 243 13
5.32853031158447266 1.32621479034423828 0.857347965240478516 98 14 0 243 13
4.71442890167236328 1.15733098983764648 1.02138185501098633 98 14 0 243 13
4.71671009063720703 1.10950243473052979 1.0740664005279541 98 14 0 243 13
5.1925816535949707 1.3814084529876709 0.93511277437210083 98 14 0 243 13
5.15107536315917969 1.40754592418670654 0.928876042366027832 98 14 0 243 13
5.17558670043945312 1.359671950340271 0.948978960514068604 98 14 0 243 13
4.88137006759643555 1.37634754180908203 0.899231553077697754 98 14 0 243 13
5.01215076446533203 1.35991823673248291 1.01036274433135986 98 14 0 243 13
5.01150131225585938 1.38881778717041016 0.96245187520980835 98 14 0 243 13
5.10365724563598633 1.37495899200439453 0.961896896362304688 98 14 0 243 13
4.74698591232299805 1.06210076808929443 0.977949023246765137 98 14 0 243 13
4.74768495559692383 1.05950140953063965 1.0130230188369751 98 14 0 243 13
4.71753263473510742 1.10439097881317139 1.01359021663665771 98 14 0 243 13
4.8671879768371582 1.31131148338317871 1.02765119075775146 98 14 0 243 13
4.73870468139648438 1.19448530673980713 1.06648063659667969 98 14 0 243 13
4.76801967620849609 1.2036513090133667 1.09687411785125732 98 14 0 243 13
5.10640716552734375 1.26308226585388184 1.11421406269073486 98 14 0 243 13
5.10604763031005859 1.31760478019714355 1.0444645881652832 98 14 0 243 13
5.04356813430786133 1.35399508476257324 1.01114845275878906 98 14 0 243 13
5.09316921234130859 1.28891122341156006 1.09186458587646484 98 14 0 243 13
5.03620433807373047 1.29957401752471924 1.08092129230499268 98 14 0 243 13
4.89572048187255859 1.10158312320709229 1.1569133996963501 98 14 0 243 13
4.76222944259643555 1.16969168186187744 1.13371372222900391 98 14 0 243 13
4.88023805618286133 1.21274054050445557 1.11460697650909424 98 14 0 243 13
4.83292388916015625 1.15297317504882812 1.14598917961120605 98 14 0 243 13
5.21496200561523438 1.23191249370574951 1.03048980236053467 98 14 0 243 13
5.23699140548706055 1.19643926620483398 0.985617458820343018 98 14 0 243 13
5.21461582183837891 1.21918809413909912 1.01714122295379639 98 14 0 243 13
5.20929718017578125 1.26090049743652344 0.983673572540283203 98 14 0 243 13
5.2520294189453125 1.19577336311340332 0.965096890926361084 98 14 0 243 13
5.22998666763305664 1.2121196985244751 0.970450937747955322 98 14 0 243 13
5.26459884643554688 1.25713264942169189 0.913246273994445801 98 14 0 243 13
5.22840785980224609 1.25258886814117432 0.946096122264862061 98 14 0 243 13
5.25256824493408203 1.21464979648590088 0.939928174018859863 98 14 0 243 13
4.90268945693969727 1.34648847579956055 0.99553215503692627 98 14 0 243 13
4.85642194747924805 1.32964742183685303 0.99467015266418457 98 14 0 243 13
4.90505647659301758 1.3318864107131958 1.0217442512512207 98 14 0 243 13
4.97264623641967773 1.35348832607269287 1.01176941394805908 98 14 0 243 13
4.77034902572631836 1.14779353141784668 1.15112650394439697 98 14 0 243 13
4.75256252288818359 1.08993387222290039 1.15003180503845215 98 14 0 243 13
4.73559427261352539 1.15457808971405029 1.12845492362976074 98 14 0 243 13
5.272003173828125 1.30966377258300781 0.852994322776794434 98 14 0 243 13
4.81216049194335938 1.24186170101165771 1.07624351978302002 98 14 0 243 13
4.83173465728759766 1.27453291416168213 1.04932451248168945 98 14 0 243 13
4.83548641204833984 1.19227766990661621 1.12634885311126709 98 14 0 243 13
4.84600067138671875 1.24088466167449951 1.0883561372756958 98 14 0 243 13
5.06137561798095703 1.38034665584564209 0.969389438629150391 98 14 0 243 13
5.10269069671630859 1.41419041156768799 0.925589084625244141 98 14 0 243 13
5.05466699600219727 1.40288114547729492 0.939792275428771973 98 14 0 243 13
5.04978609085083008 1.41856491565704346 0.887001991271972656 98 14 0 243 13
5.35327625274658203 1.24988138675689697 0.849887311458587646 98 14 0 243 13
4.81812047958374023 1.02834928035736084 1.19069409370422363 98 14 0 243 13
4.91299629211425781 1.28853821754455566 1.06946694850921631 98 14 0 243 13
4.8736572265625 1.28807342052459717 1.05819988250732422 98 14 0 243 13
4.72647380828857422 1.02770137786865234 1.1394878625869751 98 14 0 243 13
4.74941110610961914 1.04986941814422607 1.15628468990325928 98 14 0 243 13
4.76466894149780273 0.997558414936065674 1.19289672374725342 98 14 0 243 13
4.7277984619140625 1.001304030418396 1.16353368759155273 98 14 0 243 13
4.99353218078613281 1.22159624099731445 1.12244081497192383 98 14 0 243 13
5.02987861633300781 1.24064302444458008 1.12209999561309814 98 14 0 243 13
5.0238032341003418 1.41554772853851318 0.84890216588973999 98 14 0 243 13
4.70712947845458984 1.16592931747436523 0.994648277759552002 98 14 0 243 13
4.90615224838256836 1.06942105293273926 1.17401647567749023 98 14 0 243 13
4.72823715209960938 1.19883608818054199 1.03050518035888672 98 14 0 243 13
4.71637821197509766 1.15101468563079834 1.05603241920471191 98 14 0 243 13
4.7244410514831543 1.11589491367340088 1.10890793800354004 98 14 0 243 13
4.72469091415405273 1.1541132926940918 1.09571123123168945 98 14 0 243 13
4.74574089050292969 1.03837299346923828 1.06675887107849121 98 14 0 243 13
4.71859407424926758 1.07351088523864746 1.06880795955657959 98 14 0 243 13
4.71595621109008789 1.09118854999542236 1.04880654811859131 98 14 0 243 13
5.13204669952392578 1.1768500804901123 1.14601337909698486 98 14 0 243 13
5.16455745697021484 1.20184183120727539 1.12587130069732666 98 14 0 243 13
5.14240884780883789 1.24900567531585693 1.10910332202911377 98 14 0 243 13
5.11307716369628906 1.2291562557220459 1.13088059425354004 98 14 0 243 13
5.06257390975952148 1.21628987789154053 1.13698291778564453 98 14 0 243 13
5.07100343704223633 1.25229871273040771 1.1232757568359375 98 14 0 243 13
4.90229892730712891 1.26286125183105469 1.08796560764312744 98 14 0 243 13
4.95698022842407227 1.24998772144317627 1.10456764698028564 98 14 0 243 13
4.97600698471069336 1.40393185615539551 0.84791409969329834 98 14 0 243 13
4.92536258697509766 1.39422607421875 0.871028006076812744 98 14 0 243 13
4.8894963264465332 1.37676584720611572 0.831183910369873047 98 14 0 243 13
4.92483329772949219 1.38623082637786865 0.836304545402526855 98 14 0 243 13
4.92096233367919922 1.39350759983062744 0.894840538501739502 98 14 0 243 13
4.96084165573120117 1.40187966823577881 0.887311697006225586 98 14 0 243 13
4.95207834243774414 1.39213788509368896 0.92771148681640625 98 14 0 243 13
4.82351064682006836 1.3449702262878418 0.914801657199859619 98 14 0 243 13
4.91332817077636719 1.36574256420135498 0.967455804347991943 98 14 0 243 13
4.50204229354858398 1.19935703277587891 0.884767889976501465 98 14 0 243 13
4.48560428619384766 1.22391414642333984 0.884057223796844482 98 14 0 243 13
4.54510641098022461 1.32727599143981934 0.889535427093505859 98 14 0 243 13
4.54470205307006836 1.27159583568572998 0.936142146587371826 98 14 0 243 13
4.51039838790893555 1.29339456558227539 0.901400566101074219 98 14 0 243 13
4.52055454254150391 1.27816367149353027 0.923400163650512695 98 14 0 243 13
4.46586227416992188 1.23515427112579346 0.862154245376586914 98 14 0 243 13
4.51264286041259766 1.21893942356109619 0.914359033107757568 98 14 0 243 13
4.54859209060668945 1.16764581203460693 0.901201486587524414 98 14 0 243 13
4.49849081039428711 1.24982774257659912 0.907420158386230469 98 14 0 243 13
4.48039436340332031 1.27191150188446045 0.860232234001159668 98 14 0 243 13
4.53255844116210938 1.33225536346435547 0.842640459537506104 98 14 0 243 13
4.49097824096679688 1.29817450046539307 0.836423099040985107 98 14 0 243 13
4.50854206085205078 1.31935930252075195 0.856577932834625244 98 14 0 243 13
4.70017576217651367 1.22891747951507568 0.959571480751037598 98 14 0 243 13
4.70418262481689453 1.09672200679779053 0.948484897613525391 98 14 0 243 13
4.72762823104858398 1.0492711067199707 0.898907363414764404 98 14 0 243 13
4.58557939529418945 1.12410187721252441 0.893601000308990479 98 14 0 243 13
4.55231380462646484 1.20291662216186523 0.932993769645690918 98 14 0 243 13
4.6068425178527832 1.1340181827545166 0.914160251617431641 98 14 0 243 13
4.60425949096679688 1.15984046459197998 0.935834407806396484 98 14 0 243 13
4.73356151580810547 1.32653450965881348 0.83454585075378418 98 14 0 243 13
4.67853832244873047 1.33457803726196289 0.820721924304962158 98 14 0 243 13
4.64769554138183594 1.34031617641448975 0.851298511028289795 98 14 0 243 13
4.69494962692260742 1.33153176307678223 0.863941490650177002 98 14 0 243 13
4.73512363433837891 1.3109285831451416 0.900620400905609131 98 14 0 243 13
4.74776649475097656 1.32405757904052734 0.874566376209259033 98 14 0 243 13
4.71251201629638672 1.28000879287719727 0.931545913219451904 98 14 0 243 13
4.65613985061645508 1.22461283206939697 0.954812288284301758 98 14 0 243 13
4.68869972229003906 1.24677622318267822 0.950135231018066406 98 14 0 243 13
4.6598048210144043 1.26934134960174561 0.939430594444274902 98 14 0 243 13
4.71550416946411133 1.10824072360992432 0.971970856189727783 98 14 0 243 13
4.63321638107299805 1.10000860691070557 0.879991710186004639 98 14 0 243 13
4.64618206024169922 1.11254429817199707 0.912834882736206055 98 14 0 243 13
4.68425369262695312 1.09988462924957275 0.928533017635345459 98 14 0 243 13
4.68497085571289062 1.0814281702041626 0.902559459209442139 98 14 0 243 13
4.70050382614135742 1.32343137264251709 0.88067471981048584 98 14 0 243 13
4.69331789016723633 1.30342519283294678 0.910250842571258545 98 14 0 243 13
4.5454859733581543 1.30072319507598877 0.919819772243499756 98 14 0 243 13
4.59974193572998047 1.3443220853805542 0.868679821491241455 98 14 0 243 13
4.58572816848754883 1.33213353157043457 0.819448947906494141 98 14 0 243 13
4.56027364730834961 1.34469461441040039 0.856441020965576172 98 14 0 243 13
4.61475133895874023 1.34173452854156494 0.839135885238647461 98 14 0 243 13
4.60603809356689453 1.33659517765045166 0.810556709766387939 98 14 0 243 13
4.66645956039428711 1.11944985389709473 0.939480423927307129 98 14 0 243 13
4.66964912414550781 1.14273726940155029 0.95142209529876709 98 14 0 243 13
4.59622764587402344 1.3157958984375 0.917822420597076416 98 14 0 243 13
4.60418462753295898 1.33636164665222168 0.889390230178833008 98 14 0 243 13
4.70712375640869141 1.12460124492645264 0.974404335021972656 98 14 0 243 13
4.68026590347290039 1.18490159511566162 0.962609052658081055 98 14 0 243 13
4.75165987014770508 1.0288618803024292 0.871523857116699219 98 14 0 243 13
4.52945327758789062 1.23489141464233398 0.932089447975158691 98 14 0 243 13
4.58130073547363281 1.2543720006942749 0.946816742420196533 98 14 0 243 13
4.60035085678100586 1.28249037265777588 0.940464258193969727 98 14 0 243 13
4.57457685470581055 1.20802474021911621 0.943723022937774658 98 14 0 243 13
4.5593714714050293 1.23570024967193604 0.94458615779876709 98 14 0 243 13
4.61324453353881836 1.20943009853363037 0.952444970607757568 98 14 0 243 13
4.54319572448730469 1.31176590919494629 0.807254433631896973 98 14 0 243 13
5.3336482048034668 1.44981133937835693 0.893190503120422363 98 14 0 243 13
5.29090356826782227 1.52216958999633789 0.901753067970275879 98 14 0 243 13
5.26937770843505859 1.46089887619018555 0.9173431396484375 98 14 0 243 13
5.30353546142578125 1.47409152984619141 0.906015753746032715 98 14 0 243 13
5.22742986679077148 1.40263497829437256 0.926705002784729004 98 14 0 243 13
5.20304203033447266 1.42629444599151611 0.925396621227264404 98 14 0 243 13
5.27365016937255859 1.40437495708465576 0.917453765869140625 98 14 0 243 13
5.3177490234375 1.42240631580352783 0.904446721076965332 98 14 0 243 13
5.30080127716064453 1.35295796394348145 0.906368076801300049 98 14 0 243 13
5.31480264663696289 1.38752448558807373 0.895439505577087402 98 14 0 243 13
5.32736492156982422 1.42320764064788818 0.895172774791717529 98 14 0 243 13
5.27101516723632812 1.29444146156311035 0.910465478897094727 98 14 0 243 13
5.26514863967895508 1.33698666095733643 0.921628355979919434 98 14 0 243 13
5.36042070388793945 1.27644872665405273 0.822375655174255371 98 14 0 243 13
5.34527873992919922 1.33621895313262939 0.82420271635055542 98 14 0 243 13
5.33584165573120117 1.38085615634918213 0.847113847732543945 98 14 0 243 13
5.27861547470092773 1.34879899024963379 0.863977968692779541 98 14 0 243 13
5.30135965347290039 1.37421512603759766 0.8659820556640625 98 14 0 243 13
5.31549406051635742 1.39742660522460938 0.871291160583496094 98 14 0 243 13
5.33159971237182617 1.44590151309967041 0.866810142993927002 98 14 0 243 13
5.0670924186706543 1.42904198169708252 0.846843123435974121 98 14 0 243 13
5.10012435913085938 1.4595026969909668 0.850039303302764893 98 14 0 243 13
5.10913562774658203 1.4552609920501709 0.882970273494720459 98 14 0 243 13
5.07961654663085938 1.46886634826660156 0.828645467758178711 98 14 0 243 13
5.09094142913818359 1.49644148349761963 0.814685523509979248 98 14 0 243 13
5.347076416015625 1.40520846843719482 0.829449892044067383 98 14 0 243 13
5.16790390014648438 1.45379734039306641 0.915825307369232178 98 14 0 243 13
5.23172521591186523 1.4626007080078125 0.923390328884124756 98 14 0 243 13
5.21774911880493164 1.50895392894744873 0.913806498050689697 98 14 0 243 13
5.25629186630249023 1.49688160419464111 0.917045235633850098 98 14 0 243 13
5.07680702209472656 1.4301905632019043 0.885248184204101562 98 14 0 243 13
5.34437370300292969 1.45548367500305176 0.841560959815979004 98 14 0 243 13
5.3457026481628418 1.48623335361480713 0.872549533843994141 98 14 0 243 13
5.12714147567749023 1.43644225597381592 0.913406193256378174 98 14 0 243 13
5.15176534652709961 1.4735114574432373 0.905269145965576172 98 14 0 243 13
5.12741327285766602 1.50062704086303711 0.857191026210784912 98 14 0 243 13
5.30590534210205078 1.34680318832397461 0.891698837280273438 98 14 0 243 13
5.29063129425048828 1.30651652812957764 0.905071794986724854 98 14 0 243 13
5.24860572814941406 1.56679797172546387 0.883907854557037354 98 14 0 243 13
5.22652053833007812 1.53841590881347656 0.904117405414581299 98 14 0 243 13
5.18593454360961914 1.53154885768890381 0.897051811218261719 98 14 0 243 13
5.22383356094360352 1.60338842868804932 0.834687352180480957 98 14 0 243 13
5.28083324432373047 1.58371829986572266 0.84692537784576416 98 14 0 243 13
5.21565341949462891 1.56933999061584473 0.869909465312957764 98 14 0 243 13
5.33497190475463867 1.53008830547332764 0.861207187175750732 98 14 0 243 13
5.29595661163330078 1.53957092761993408 0.889027118682861328 98 14 0 243 13
5.1526646614074707 1.50518596172332764 0.890280485153198242 98 14 0 243 13
5.10767650604248047 1.52060186862945557 0.805494546890258789 98 14 0 243 13
5.14407110214233398 1.55052721500396729 0.84834665060043335 98 14 0 243 13
5.1640315055847168 1.54875993728637695 0.860892415046691895 98 14 0 243 13
5.10400199890136719 1.50528478622436523 0.837152481079101562 98 14 0 243 13
5.18861627578735352 1.58833253383636475 0.845618903636932373 98 14 0 243 13
