ply
format ascii 1.0
element vertex 249
property float x
property float y
property float z
property uchar red
property uchar green
property uchar blue
property uchar alpha
property uint label
end_header
6.75931310653686523 5.82548904418945312 0.609830796718597412 0 0 255 244 12
6.78893852233886719 5.82383155822753906 0.621351778507232666 0 0 255 244 12
6.87689495086669922 5.86141586303710938 0.691302835941314697 0 0 255 244 12
6.70133447647094727 6.00965118408203125 0.653084397315979004 0 0 255 244 12
6.82798671722412109 5.89910173416137695 0.694521963596343994 0 0 255 244 12
6.92040443420410156 6.19655847549438477 0.710756301879882812 0 0 255 244 12
6.69910144805908203 5.96819496154785156 0.641397058963775635 0 0 255 244 12
6.99683666229248047 6.10985898971557617 0.715146839618682861 0 0 255 244 12
6.84228038787841797 6.15294933319091797 0.716905593872070312 0 0 255 244 12
6.68235874176025391 5.96743965148925781 0.621099293231964111 0 0 255 244 12
6.70643234252929688 5.92838764190673828 0.628780186176300049 0 0 255 244 12
6.73513269424438477 6.07178974151611328 0.690813422203063965 0 0 255 244 12
6.74137163162231445 5.98315095901489258 0.669235646724700928 0 0 255 244 12
6.74574184417724609 6.05056619644165039 0.690248727798461914 0 0 255 244 12
6.77427911758422852 6.04977607727050781 0.705963313579559326 0 0 255 244 12
6.77083253860473633 5.97638511657714844 0.693078160285949707 0 0 255 244 12
7.04026412963867188 5.9908909797668457 0.701633036136627197 0 0 255 244 12
6.65086078643798828 6.03244972229003906 0.607375741004943848 0 0 255 244 12
6.64153766632080078 6.08260583877563477 0.605942487716674805 0 0 255 244 12
6.66507911682128906 5.97245073318481445 0.605341970920562744 0 0 255 244 12
6.66911125183105469 6.04389047622680664 0.624770760536193848 0 0 255 244 12
6.76487636566162109 5.85138893127441406 0.629425764083862305 0 0 255 244 12
6.78121137619018555 5.95466756820678711 0.692344546318054199 0 0 255 244 12
6.9192500114440918 6.01554155349731445 0.716408967971801758 0 0 255 244 12
6.7333526611328125 5.88141012191772461 0.627534866333007812 0 0 255 244 12
6.72063446044921875 5.86483144760131836 0.605775356292724609 0 0 255 244 12
6.80231809616088867 6.23201227188110352 0.681789040565490723 0 0 255 244 12
6.83804702758789062 6.19762372970581055 0.710220575332641602 0 0 255 244 12
6.84645700454711914 6.24395084381103516 0.695328772068023682 0 0 255 244 12
6.82013607025146484 6.00317478179931641 0.713733136653900146 0 0 255 244 12
6.95493888854980469 6.15267181396484375 0.712455987930297852 0 0 255 244 12
6.99223566055297852 6.05349254608154297 0.710269927978515625 0 0 255 244 12
6.91663026809692383 6.11812496185302734 0.715301394462585449 0 0 255 244 12
6.86094093322753906 6.06596946716308594 0.720805108547210693 0 0 255 244 12
6.93982934951782227 5.92610645294189453 0.705328643321990967 0 0 255 244 12
7.01049327850341797 5.9691009521484375 0.697300851345062256 0 0 255 244 12
7.04624557495117188 5.95929670333862305 0.688187956809997559 0 0 255 244 12
6.93951654434204102 5.90413475036621094 0.698211193084716797 0 0 255 244 12
7.01841115951538086 5.95120143890380859 0.688128352165222168 0 0 255 244 12
6.68046855926513672 6.10603237152099609 0.636474490165710449 0 0 255 244 12
6.65923118591308594 6.14184999465942383 0.608831882476806641 0 0 255 244 12
6.68494033813476562 6.12428617477416992 0.650367975234985352 0 0 255 244 12
6.70949125289916992 6.15036296844482422 0.667666494846343994 0 0 255 244 12
6.69085073471069336 6.05208063125610352 0.658688724040985107 0 0 255 244 12
6.94616174697875977 6.22544479370117188 0.710020840167999268 0 0 255 244 12
6.88970518112182617 6.26895952224731445 0.696159780025482178 0 0 255 244 12
6.9370121955871582 6.28557300567626953 0.700064718723297119 0 0 255 244 12
6.9139094352722168 6.24284124374389648 0.704008877277374268 0 0 255 244 12
6.69666814804077148 6.10667848587036133 0.670453071594238281 0 0 255 244 12
6.7574162483215332 6.12493085861206055 0.703222393989562988 0 0 255 244 12
6.74452018737792969 6.1466059684753418 0.694125533103942871 0 0 255 244 12
6.75744962692260742 5.93336725234985352 0.671552598476409912 0 0 255 244 12
6.73177433013916016 5.92789602279663086 0.655028700828552246 0 0 255 244 12
6.83313941955566406 6.06414508819580078 0.719966232776641846 0 0 255 244 12
6.79431295394897461 6.07283544540405273 0.714197993278503418 0 0 255 244 12
6.86547422409057617 5.98699188232421875 0.717741250991821289 0 0 255 244 12
6.69095087051391602 6.15943765640258789 0.63020092248916626 0 0 255 244 12
6.6875462532043457 6.19197559356689453 0.599373042583465576 0 0 255 244 12
6.99754905700683594 6.00998878479003906 0.706315219402313232 0 0 255 244 12
7.01563787460327148 6.03061819076538086 0.707819223403930664 0 0 255 244 12
6.97028779983520508 6.18433952331542969 0.715014398097991943 0 0 255 244 12
6.85300540924072266 5.91087579727172852 0.703904509544372559 0 0 255 244 12
6.78075313568115234 5.87300205230712891 0.66348952054977417 0 0 255 244 12
6.81195592880249023 5.83570289611816406 0.649640738964080811 0 0 255 244 12
6.72302865982055664 6.20868730545043945 0.619499504566192627 0 0 255 244 12
6.7352442741394043 6.19502115249633789 0.651538074016571045 0 0 255 244 12
6.788238525390625 6.15290403366088867 0.710494577884674072 0 0 255 244 12
6.76419353485107422 6.18295526504516602 0.689994096755981445 0 0 255 244 12
6.75747299194335938 6.21676826477050781 0.658001601696014404 0 0 255 244 12
6.89546823501586914 5.90274190902709961 0.706289112567901611 0 0 255 244 12
6.90603971481323242 5.94797468185424805 0.71278756856918335 0 0 255 244 12
6.72169399261474609 5.86908388137817383 0.506447315216064453 0 0 255 244 12
6.7206110954284668 5.87896871566772461 0.408362001180648804 0 0 255 244 12
6.75837230682373047 5.83442783355712891 0.431310564279556274 0 0 255 244 12
6.74903964996337891 5.83718490600585938 0.468887358903884888 0 0 255 244 12
6.76903867721557617 5.82884931564331055 0.438785731792449951 0 0 255 244 12
6.75587558746337891 5.83063650131225586 0.500726997852325439 0 0 255 244 12
6.70403385162353516 5.90166330337524414 0.481892436742782593 0 0 255 244 12
6.69904708862304688 5.9105682373046875 0.424564182758331299 0 0 255 244 12
6.67159271240234375 5.97807645797729492 0.506558895111083984 0 0 255 244 12
6.6888117790222168 5.9349360466003418 0.461747288703918457 0 0 255 244 12
6.68568849563598633 5.93499994277954102 0.504999995231628418 0 0 255 244 12
6.67913103103637695 5.95659637451171875 0.439447671175003052 0 0 255 244 12
6.715484619140625 6.20588397979736328 0.455986946821212769 0 0 255 244 12
6.68423795700073242 6.14660739898681641 0.394785940647125244 0 0 255 244 12
6.6544346809387207 6.08706140518188477 0.436182022094726562 0 0 255 244 12
6.65650749206542969 6.10473775863647461 0.466935455799102783 0 0 255 244 12
6.65776777267456055 6.12012720108032227 0.558240175247192383 0 0 255 244 12
6.66486120223999023 6.12550640106201172 0.488247007131576538 0 0 255 244 12
6.65260982513427734 6.03808164596557617 0.553563237190246582 0 0 255 244 12
6.65641355514526367 6.01246976852416992 0.560650408267974854 0 0 255 244 12
6.65500831604003906 6.07453203201293945 0.474072188138961792 0 0 255 244 12
6.71742343902587891 6.19237279891967773 0.367710471153259277 0 0 255 244 12
6.71531343460083008 6.19148826599121094 0.421015471220016479 0 0 255 244 12
6.6813969612121582 6.14894628524780273 0.468133121728897095 0 0 255 244 12
6.66301155090332031 6.01164436340332031 0.490972429513931274 0 0 255 244 12
6.65888404846191406 6.02533149719238281 0.435692548751831055 0 0 255 244 12
6.65267562866210938 6.07227563858032227 0.424555450677871704 0 0 255 244 12
6.76533651351928711 5.83370447158813477 0.325827956199645996 0 0 255 244 12
6.71259117126464844 6.19484663009643555 0.456999897956848145 0 0 255 244 12
6.70668649673461914 6.19003725051879883 0.522162973880767822 0 0 255 244 12
6.74620437622070312 5.8459315299987793 0.425378203392028809 0 0 255 244 12
6.70189905166625977 6.18350315093994141 0.355429083108901978 0 0 255 244 12
6.66785383224487305 6.12361669540405273 0.40482822060585022 0 0 255 244 12
6.7478632926940918 5.8315434455871582 0.561268508434295654 0 0 255 244 12
6.75407934188842773 5.81589078903198242 0.592628180980682373 0 0 255 244 12
6.72326803207397461 5.86045551300048828 0.554678201675415039 0 0 255 244 12
6.66192626953125 5.97234296798706055 0.592192471027374268 0 0 255 244 12
6.68550348281860352 5.91077089309692383 0.592640876770019531 0 0 255 244 12
6.68562555313110352 5.92266988754272461 0.56064760684967041 0 0 255 244 12
6.64875507354736328 6.08896017074584961 0.5650215744972229 0 0 255 244 12
6.64443063735961914 6.04791450500488281 0.590299308300018311 0 0 255 244 12
6.70525598526000977 5.87631750106811523 0.590997457504272461 0 0 255 244 12
6.64428329467773438 6.11006641387939453 0.6044045090675354 0 0 255 244 12
6.65773391723632812 6.14500141143798828 0.592097997665405273 0 0 255 244 12
6.67151165008544922 6.14614534378051758 0.556368887424468994 0 0 255 244 12
6.68238925933837891 6.19075918197631836 0.579536736011505127 0 0 255 244 12
6.95747804641723633 5.90270423889160156 0.0875365808606147766 0 0 255 244 12
6.72121858596801758 5.88559770584106445 0.299672305583953857 0 0 255 244 12
6.73477697372436523 5.86439037322998047 0.304103493690490723 0 0 255 244 12
6.75697803497314453 5.84149456024169922 0.286288142204284668 0 0 255 244 12
6.7497563362121582 5.84993982315063477 0.248131364583969116 0 0 255 244 12
6.68763494491577148 5.92423248291015625 0.282807856798171997 0 0 255 244 12
6.6734471321105957 5.93555164337158203 0.268510729074478149 0 0 255 244 12
6.93932056427001953 5.89482355117797852 0.284435778856277466 0 0 255 244 12
6.94584035873413086 5.89298915863037109 0.355691730976104736 0 0 255 244 12
6.88908576965332031 5.86479949951171875 0.266048818826675415 0 0 255 244 12
6.92362642288208008 5.88579130172729492 0.245549127459526062 0 0 255 244 12
6.86095333099365234 5.85894584655761719 0.0986691638827323914 0 0 255 244 12
6.82093572616577148 5.84341859817504883 0.0846921056509017944 0 0 255 244 12
6.81732416152954102 5.84567451477050781 0.105013392865657806 0 0 255 244 12
6.95174789428710938 5.88530349731445312 0.524815618991851807 0 0 255 244 12
6.99474334716796875 5.91848134994506836 0.527186453342437744 0 0 255 244 12
6.94682693481445312 5.88517570495605469 0.487231254577636719 0 0 255 244 12
6.72815704345703125 5.88790988922119141 0.135654419660568237 0 0 255 244 12
6.73391962051391602 5.8728947639465332 0.225742369890213013 0 0 255 244 12
6.7673487663269043 5.84424161911010742 0.135484859347343445 0 0 255 244 12
6.74895095825195312 5.85585927963256836 0.142920970916748047 0 0 255 244 12
6.7594757080078125 5.84691524505615234 0.197418659925460815 0 0 255 244 12
6.78880214691162109 5.84038686752319336 0.177703246474266052 0 0 255 244 12
6.65811824798583984 5.89397287368774414 0.336557149887084961 0 0 255 244 12
6.61816549301147461 5.86828136444091797 0.327166825532913208 0 0 255 244 12
6.60824394226074219 5.83997678756713867 0.381854146718978882 0 0 255 244 12
6.60550069808959961 5.85356950759887695 0.358641177415847778 0 0 255 244 12
6.67714214324951172 5.97009611129760742 0.147696390748023987 0 0 255 244 12
6.68732357025146484 5.95140743255615234 0.159753188490867615 0 0 255 244 12
6.69818544387817383 5.940826416015625 0.0928865894675254822 0 0 255 244 12
6.67341709136962891 5.97554969787597656 0.0916714668273925781 0 0 255 244 12
6.68727254867553711 5.96032190322875977 0.0888909921050071716 0 0 255 244 12
6.71386098861694336 5.92343568801879883 0.0921382233500480652 0 0 255 244 12
6.77491140365600586 5.8206334114074707 0.553905189037322998 0 0 255 244 12
6.78499984741210938 5.82370567321777344 0.495000004768371582 0 0 255 244 12
7.01951265335083008 5.9361567497253418 0.429059386253356934 0 0 255 244 12
6.71363449096679688 5.91241550445556641 0.169939950108528137 0 0 255 244 12
6.6954350471496582 5.92676925659179688 0.182594895362854004 0 0 255 244 12
6.67920064926147461 5.9440770149230957 0.245822414755821228 0 0 255 244 12
6.67790699005126953 5.95475387573242188 0.210217341780662537 0 0 255 244 12
6.65802621841430664 5.85004854202270508 0.401952654123306274 0 0 255 244 12
7.00453948974609375 5.92548322677612305 0.485333770513534546 0 0 255 244 12
7.02469682693481445 5.93672275543212891 0.516291201114654541 0 0 255 244 12
7.02851581573486328 5.91008758544921875 0.563363790512084961 0 0 255 244 12
6.97437953948974609 5.90253353118896484 0.0746180787682533264 0 0 255 244 12
6.9884033203125 5.93558502197265625 0.104462094604969025 0 0 255 244 12
6.75646495819091797 5.85508108139038086 0.0885454565286636353 0 0 255 244 12
6.73632383346557617 5.87889719009399414 0.0877230018377304077 0 0 255 244 12
6.70825052261352539 5.91892576217651367 0.141828641295433044 0 0 255 244 12
6.77774143218994141 5.84467458724975586 0.0895118787884712219 0 0 255 244 12
6.63959789276123047 5.90367841720581055 0.29634857177734375 0 0 255 244 12
6.96679067611694336 5.91527652740478516 0.312593638896942139 0 0 255 244 12
7.0186762809753418 5.94198894500732422 0.312899529933929443 0 0 255 244 12
6.71415948867797852 5.90337085723876953 0.237419202923774719 0 0 255 244 12
6.69826364517211914 5.91704702377319336 0.235254272818565369 0 0 255 244 12
6.64191198348999023 5.89194583892822266 0.312490671873092651 0 0 255 244 12
6.69549131393432617 5.91301774978637695 0.283865749835968018 0 0 255 244 12
6.80000019073486328 5.83718013763427734 0.217500001192092896 0 0 255 244 12
6.85495185852050781 5.84550762176513672 0.291249990463256836 0 0 255 244 12
6.82347488403320312 5.83507537841796875 0.302656233310699463 0 0 255 244 12
6.9727330207824707 5.92198801040649414 0.202400937676429749 0 0 255 244 12
7.02058839797973633 5.94786214828491211 0.242294028401374817 0 0 255 244 12
6.99260568618774414 5.93582344055175781 0.26020088791847229 0 0 255 244 12
6.97442436218261719 5.9270787239074707 0.169634729623794556 0 0 255 244 12
6.616790771484375 5.82921075820922852 0.409437507390975952 0 0 255 244 12
6.99695730209350586 5.93047475814819336 0.379494637250900269 0 0 255 244 12
6.98497819900512695 5.91768121719360352 0.424900203943252563 0 0 255 244 12
6.90229129791259766 5.85514450073242188 0.514578461647033691 0 0 255 244 12
6.88752651214599609 5.84425067901611328 0.541268646717071533 0 0 255 244 12
6.94205951690673828 5.88542509078979492 0.427185773849487305 0 0 255 244 12
6.9517054557800293 5.8955531120300293 0.413088560104370117 0 0 255 244 12
6.89978742599487305 5.86032485961914062 0.427510976791381836 0 0 255 244 12
6.88490104675292969 5.85046100616455078 0.445548266172409058 0 0 255 244 12
6.77993392944335938 5.83658599853515625 0.233749985694885254 0 0 255 244 12
6.77999973297119141 5.82896232604980469 0.385312497615814209 0 0 255 244 12
6.82999992370605469 5.84440183639526367 0.186250001192092896 0 0 255 244 12
6.81999969482421875 5.83026361465454102 0.381249994039535522 0 0 255 244 12
6.78999996185302734 5.83118629455566406 0.302500009536743164 0 0 255 244 12
6.81312465667724609 5.82524490356445312 0.487500011920928955 0 0 255 244 12
7.04878091812133789 5.94028854370117188 0.504392743110656738 0 0 255 244 12
6.85557270050048828 5.83420181274414062 0.47999998927116394 0 0 255 244 12
6.8846888542175293 5.85854530334472656 0.325025767087936401 0 0 255 244 12
6.93511867523193359 5.88489151000976562 0.372123599052429199 0 0 255 244 12
6.89500808715820312 5.86417531967163086 0.325143724679946899 0 0 255 244 12
6.88870096206665039 5.87156343460083008 0.126368343830108643 0 0 255 244 12
6.92470121383666992 5.8953404426574707 0.156188860535621643 0 0 255 244 12
6.97281169891357422 5.92953872680664062 0.12653842568397522 0 0 255 244 12
6.92283725738525391 5.88840007781982422 0.106455594301223755 0 0 255 244 12
6.91179180145263672 5.87146997451782227 0.0744728296995162964 0 0 255 244 12
6.70370197296142578 5.87369251251220703 0.366732627153396606 0 0 255 244 12
6.69838666915893555 5.89847517013549805 0.332854568958282471 0 0 255 244 12
6.68899106979370117 5.91731071472167969 0.31458359956741333 0 0 255 244 12
6.64064645767211914 5.85190105438232422 0.382569760084152222 0 0 255 244 12
6.74882030487060547 5.84594583511352539 0.320753812789916992 0 0 255 244 12
6.72772550582885742 5.86849832534790039 0.352796316146850586 0 0 255 244 12
6.71692466735839844 5.89677143096923828 0.208227738738059998 0 0 255 244 12
6.90513896942138672 5.88234663009643555 0.164919614791870117 0 0 255 244 12
6.87441921234130859 5.86301565170288086 0.190651029348373413 0 0 255 244 12
6.89510726928710938 5.87392616271972656 0.195492550730705261 0 0 255 244 12
6.91857576370239258 5.88625526428222656 0.195512905716896057 0 0 255 244 12
6.90280818939208984 5.87552690505981445 0.224985778331756592 0 0 255 244 12
6.83761072158813477 5.8261265754699707 0.531459331512451172 0 0 255 244 12
6.98677873611450195 5.92477703094482422 0.339057028293609619 0 0 255 244 12
6.86637401580810547 5.8443450927734375 0.384999990463256836 0 0 255 244 12
6.87272024154663086 5.83591794967651367 0.547765493392944336 0 0 255 244 12
6.89389753341674805 5.83668136596679688 0.582462489604949951 0 0 255 244 12
6.92185640335083008 5.8516693115234375 0.6033669114112854 0 0 255 244 12
6.94808244705200195 5.87615299224853516 0.618868052959442139 0 0 255 244 12
6.94831132888793945 5.86481666564941406 0.582788944244384766 0 0 255 244 12
6.79413223266601562 5.80969667434692383 0.583490908145904541 0 0 255 244 12
6.97378921508789062 5.88810396194458008 0.557826757431030273 0 0 255 244 12
6.96599197387695312 5.89000749588012695 0.619287669658660889 0 0 255 244 12
6.98100757598876953 5.88356733322143555 0.586554050445556641 0 0 255 244 12
7.02859687805175781 5.91597938537597656 0.587946653366088867 0 0 255 244 12
6.89438915252685547 5.86108541488647461 0.682959258556365967 0 0 255 244 12
6.89214897155761719 5.84494686126708984 0.632414758205413818 0 0 255 244 12
6.92768192291259766 5.87079477310180664 0.64439767599105835 0 0 255 244 12
6.7828822135925293 5.80896139144897461 0.597174525260925293 0 0 255 244 12
6.84222221374511719 5.81541109085083008 0.583902299404144287 0 0 255 244 12
6.87224912643432617 5.82417726516723633 0.58609473705291748 0 0 255 244 12
6.84618806838989258 5.82616281509399414 0.622475385665893555 0 0 255 244 12
6.82140398025512695 5.8218693733215332 0.546826779842376709 0 0 255 244 12
7.05324602127075195 5.93957042694091797 0.64779287576675415 0 0 255 244 12
7.01009702682495117 5.92646074295043945 0.619272410869598389 0 0 255 244 12
6.9571533203125 5.89064168930053711 0.643142223358154297 0 0 255 244 12
7.04562711715698242 5.93879985809326172 0.60512232780456543 0 0 255 244 12
7.06221771240234375 5.91607379913330078 0.54550015926361084 0 0 255 244 12
7.05469655990600586 5.91862058639526367 0.575455427169799805 0 0 255 244 12
7.03083038330078125 5.93769073486328125 0.659122824668884277 0 0 255 244 12
6.99177408218383789 5.9214787483215332 0.676580131053924561 0 0 255 244 12
6.87527894973754883 5.82512998580932617 0.600208818912506104 0 0 255 244 12
6.85445165634155273 5.83533859252929688 0.654837846755981445 0 0 255 244 12
