ply
format ascii 1.0
element vertex 46
property float x
property float y
property float z
property uchar red
property uchar green
property uchar blue
property uchar alpha
property uint label
end_header
1.63734030723571777 1.19307339191436768 1.82486903667449951 255 0 246 153 103
1.65223050117492676 1.16532516479492188 1.84948873519897461 255 0 246 153 103
1.6562650203704834 1.15617859363555908 1.7943263053894043 255 0 246 153 103
1.62053608894348145 1.19085431098937988 1.79162120819091797 255 0 246 153 103
1.63447403907775879 1.14369535446166992 1.7584083080291748 255 0 246 153 103
1.6536715030670166 1.12898147106170654 1.76865684986114502 255 0 246 153 103
1.69293200969696045 1.07222044467926025 1.82616198062896729 255 0 246 153 103
1.67130398750305176 1.11637914180755615 1.81472182273864746 255 0 246 153 103
1.68581926822662354 1.06994128227233887 1.78282499313354492 255 0 246 153 103
1.71189820766448975 0.95670551061630249 1.65530824661254883 255 0 246 153 103
1.67807495594024658 1.03334248065948486 2.06496524810791016 255 0 246 153 103
1.68387007713317871 1.01841986179351807 1.6503831148147583 255 0 246 153 103
1.72677648067474365 0.928150951862335205 1.92380499839782715 255 0 246 153 103
1.717673659324646 0.947124004364013672 1.99125504493713379 255 0 246 153 103
1.63004493713378906 1.20741617679595947 1.85587608814239502 255 0 246 153 103
1.60373961925506592 1.22750592231750488 1.85328125953674316 255 0 246 153 103
1.62345731258392334 1.21717393398284912 1.91560769081115723 255 0 246 153 103
1.59680426120758057 1.23581337928771973 1.91764628887176514 255 0 246 153 103
1.72585523128509521 0.942670941352844238 1.87853872776031494 255 0 246 153 103
1.63035035133361816 1.20654547214508057 1.9526747465133667 255 0 246 153 103
1.7018287181854248 1.03863620758056641 2.00229573249816895 255 0 246 153 103
1.70032644271850586 0.992603838443756104 2.0368959903717041 255 0 246 153 103
1.6828685998916626 1.08557629585266113 1.92124998569488525 255 0 246 153 103
1.69791269302368164 1.0538630485534668 1.94980013370513916 255 0 246 153 103
1.72085189819335938 0.938608109951019287 1.77684128284454346 255 0 246 153 103
1.70270860195159912 0.977693796157836914 1.78041136264801025 255 0 246 153 103
1.70272362232208252 1.02188169956207275 1.80149722099304199 255 0 246 153 103
1.72081649303436279 0.93630528450012207 1.8244624137878418 255 0 246 153 103
1.67803871631622314 1.03466260433197021 1.74445533752441406 255 0 246 153 103
1.71639907360076904 1.00571417808532715 1.83873951435089111 255 0 246 153 103
1.71305155754089355 1.02838969230651855 1.91095840930938721 255 0 246 153 103
1.64310538768768311 1.12342715263366699 1.74677145481109619 255 0 246 153 103
1.7110368013381958 0.956360936164855957 1.75054752826690674 255 0 246 153 103
1.70382010936737061 0.968757092952728271 1.68691921234130859 255 0 246 153 103
1.68874752521514893 1.00508260726928711 1.73396468162536621 255 0 246 153 103
1.65678119659423828 1.08728528022766113 1.74203062057495117 255 0 246 153 103
1.67798316478729248 1.03173613548278809 1.68269491195678711 255 0 246 153 103
1.67050111293792725 1.05644881725311279 1.70437097549438477 255 0 246 153 103
1.65889453887939453 1.08170723915100098 1.66415131092071533 255 0 246 153 103
1.72277653217315674 0.992020249366760254 1.91413998603820801 255 0 246 153 103
1.71579253673553467 1.00100278854370117 1.97312748432159424 255 0 246 153 103
1.64938545227050781 1.16440033912658691 1.91999995708465576 255 0 246 153 103
1.67296457290649414 1.10000002384185791 1.99000000953674316 255 0 246 153 103
1.68328452110290527 1.07037556171417236 2.02606415748596191 255 0 246 153 103
1.67441534996032715 1.10363495349884033 1.89499998092651367 255 0 246 153 103
1.6978905200958252 1.05619692802429199 1.87978100776672363 255 0 246 153 103
