ply
format ascii 1.0
element vertex 319
property float x
property float y
property float z
property uchar red
property uchar green
property uchar blue
property uchar alpha
property uint label
end_header
4.89695310592651367 6.68719387054443359 0.792647719383239746 255 0 246 218 38
4.81788301467895508 6.64589118957519531 0.768914222717285156 255 0 246 218 38
4.85113763809204102 6.6732335090637207 0.765748977661132812 255 0 246 218 38
4.87611103057861328 6.65658283233642578 0.795379579067230225 255 0 246 218 38
4.86907863616943359 6.69411945343017578 0.743684172630310059 255 0 246 218 38
4.85061502456665039 6.62567758560180664 0.785785496234893799 255 0 246 218 38
4.63949251174926758 6.67533254623413086 0.797864377498626709 255 0 246 218 38
4.66372394561767578 6.65312767028808594 0.80383908748626709 255 0 246 218 38
4.64804363250732422 6.7315831184387207 0.8050575852394104 255 0 246 218 38
4.78246688842773438 6.64656734466552734 0.756824016571044922 255 0 246 218 38
4.75547218322753906 6.64314985275268555 0.742815613746643066 255 0 246 218 38
4.75144815444946289 6.80366897583007812 0.803115308284759521 255 0 246 218 38
4.74241256713867188 6.73632907867431641 0.802264034748077393 255 0 246 218 38
4.74339866638183594 6.68784952163696289 0.802103936672210693 255 0 246 218 38
4.78223657608032227 6.64543008804321289 0.800157666206359863 255 0 246 218 38
4.86723518371582031 6.67988014221191406 0.801661312580108643 255 0 246 218 38
4.81812477111816406 6.70499992370605469 0.802168488502502441 255 0 246 218 38
4.80359172821044922 6.83463954925537109 0.804663777351379395 255 0 246 218 38
4.63524818420410156 6.70524978637695312 0.80094146728515625 255 0 246 218 38
4.6263127326965332 6.81378555297851562 0.79743272066116333 255 0 246 218 38
4.62335777282714844 6.75482559204101562 0.799341797828674316 255 0 246 218 38
4.64597654342651367 6.85545015335083008 0.797793805599212646 255 0 246 218 38
4.6636509895324707 6.87117099761962891 0.79923248291015625 255 0 246 218 38
4.64228010177612305 6.82451534271240234 0.800642013549804688 255 0 246 218 38
4.69487524032592773 6.84703588485717773 0.806337714195251465 255 0 246 218 38
4.66594266891479492 6.79834270477294922 0.806796610355377197 255 0 246 218 38
4.89184904098510742 6.73410511016845703 0.802620172500610352 255 0 246 218 38
4.91948986053466797 6.7387537956237793 0.796306431293487549 255 0 246 218 38
4.75310087203979492 6.86497926712036133 0.806871533393859863 255 0 246 218 38
4.80366373062133789 6.61476993560791016 0.785748839378356934 255 0 246 218 38
4.86156415939331055 6.87282800674438477 0.804636597633361816 255 0 246 218 38
4.8005976676940918 6.88518762588500977 0.80779266357421875 255 0 246 218 38
4.83922910690307617 6.90467500686645508 0.796638727188110352 255 0 246 218 38
4.79942703247070312 6.9159693717956543 0.799211442470550537 255 0 246 218 38
4.62500143051147461 6.70512819290161133 0.797469139099121094 255 0 246 218 38
4.88305473327636719 6.65526771545410156 0.782880842685699463 255 0 246 218 38
4.69351720809936523 6.89155483245849609 0.799289226531982422 255 0 246 218 38
4.69528532028198242 6.64450168609619141 0.799195706844329834 255 0 246 218 38
4.68678188323974609 6.75636863708496094 0.802325606346130371 255 0 246 218 38
4.75836515426635742 6.6139826774597168 0.796973109245300293 255 0 246 218 38
4.75547122955322266 6.60718870162963867 0.782239139080047607 255 0 246 218 38
4.79149055480957031 6.62544727325439453 0.768240511417388916 255 0 246 218 38
4.73710441589355469 6.59966468811035156 0.781648576259613037 255 0 246 218 38
4.72623300552368164 6.61947298049926758 0.749433040618896484 255 0 246 218 38
4.8122401237487793 6.62149906158447266 0.795317471027374268 255 0 246 218 38
4.69328737258911133 6.61832141876220703 0.795790016651153564 255 0 246 218 38
4.70272207260131836 6.61078596115112305 0.783118486404418945 255 0 246 218 38
4.67008113861083984 6.6328892707824707 0.779570221900939941 255 0 246 218 38
4.74823999404907227 6.89671897888183594 0.806017160415649414 255 0 246 218 38
4.71780681610107422 6.92494916915893555 0.799545049667358398 255 0 246 218 38
4.75829219818115234 6.92499780654907227 0.797877609729766846 255 0 246 218 38
4.8999934196472168 6.77500247955322266 0.804639816284179688 255 0 246 218 38
4.89849376678466797 6.83628988265991211 0.803564906120300293 255 0 246 218 38
4.88172817230224609 6.8658294677734375 0.800435364246368408 255 0 246 218 38
4.77927398681640625 6.80136537551879883 0.803783297538757324 255 0 246 218 38
4.83380126953125 6.87423324584960938 0.464702129364013672 255 0 246 218 38
4.798614501953125 6.84841537475585938 0.471074759960174561 255 0 246 218 38
4.83294105529785156 7.05278873443603516 0.121956586837768555 255 0 246 218 38
4.91106796264648438 6.82231807708740234 0.32045978307723999 255 0 246 218 38
4.84909486770629883 6.97668313980102539 0.27822500467300415 255 0 246 218 38
4.83474493026733398 6.99506330490112305 0.277501732110977173 255 0 246 218 38
4.82455682754516602 7.00365018844604492 0.281181246042251587 255 0 246 218 38
4.79585361480712891 7.00598001480102539 0.293647676706314087 255 0 246 218 38
4.81085538864135742 7.00881719589233398 0.277566701173782349 255 0 246 218 38
4.80681371688842773 6.97499275207519531 0.263591378927230835 255 0 246 218 38
4.88943195343017578 6.85928058624267578 0.290679126977920532 255 0 246 218 38
4.9003748893737793 6.82541751861572266 0.299381047487258911 255 0 246 218 38
4.76620149612426758 6.94707155227661133 0.443059533834457397 255 0 246 218 38
4.79649066925048828 6.8899226188659668 0.456983566284179688 255 0 246 218 38
4.78030157089233398 6.94654464721679688 0.453649044036865234 255 0 246 218 38
4.81323575973510742 6.89753103256225586 0.438966721296310425 255 0 246 218 38
4.83696889877319336 6.88374853134155273 0.431217730045318604 255 0 246 218 38
4.86388349533081055 6.91840076446533203 0.417557805776596069 255 0 246 218 38
4.86069202423095703 6.90708398818969727 0.463013112545013428 255 0 246 218 38
4.86426067352294922 6.90401124954223633 0.424930810928344727 255 0 246 218 38
4.83473825454711914 6.95620918273925781 0.435825765132904053 255 0 246 218 38
4.81477880477905273 6.90495443344116211 0.391659677028656006 255 0 246 218 38
4.80427122116088867 6.973419189453125 0.511489927768707275 255 0 246 218 38
4.85857820510864258 6.87645626068115234 0.533494710922241211 255 0 246 218 38
4.84249496459960938 6.90061187744140625 0.341549813747406006 255 0 246 218 38
4.8203129768371582 6.92005443572998047 0.331413030624389648 255 0 246 218 38
4.86268520355224609 6.90597009658813477 0.347034752368927002 255 0 246 218 38
4.84384441375732422 6.89481163024902344 0.372872620820999146 255 0 246 218 38
4.87685060501098633 6.92788219451904297 0.319651812314987183 255 0 246 218 38
4.8663487434387207 6.92688226699829102 0.364348381757736206 255 0 246 218 38
4.77333927154541016 6.9741058349609375 0.512323677539825439 255 0 246 218 38
4.80408763885498047 6.97392416000366211 0.548684239387512207 255 0 246 218 38
4.85548305511474609 7.019775390625 0.132125347852706909 255 0 246 218 38
4.79517698287963867 7.00372552871704102 0.33457338809967041 255 0 246 218 38
4.79801845550537109 7.00107240676879883 0.379212170839309692 255 0 246 218 38
4.78650093078613281 6.99353265762329102 0.376118987798690796 255 0 246 218 38
4.77313232421875 6.96820545196533203 0.36864626407623291 255 0 246 218 38
4.77422904968261719 6.95491266250610352 0.391198188066482544 255 0 246 218 38
4.84944581985473633 6.93217992782592773 0.481528788805007935 255 0 246 218 38
4.84580326080322266 6.8883051872253418 0.47581249475479126 255 0 246 218 38
4.82919645309448242 6.94176816940307617 0.518824338912963867 255 0 246 218 38
4.85923385620117188 6.90340805053710938 0.510041892528533936 255 0 246 218 38
4.87513875961303711 6.97473049163818359 0.164402663707733154 255 0 246 218 38
4.86245536804199219 6.99478244781494141 0.158870086073875427 255 0 246 218 38
4.84249114990234375 6.99305868148803711 0.240981832146644592 255 0 246 218 38
4.83631610870361328 7.02022123336791992 0.165623024106025696 255 0 246 218 38
4.81775140762329102 7.01192235946655273 0.219784215092658997 255 0 246 218 38
4.78470325469970703 6.97754049301147461 0.291027605533599854 255 0 246 218 38
4.79158163070678711 6.98368740081787109 0.271795988082885742 255 0 246 218 38
4.86598968505859375 6.97256088256835938 0.215545445680618286 255 0 246 218 38
4.88479900360107422 6.95128631591796875 0.181839480996131897 255 0 246 218 38
4.82787561416625977 6.97496938705444336 0.394484549760818481 255 0 246 218 38
4.81275224685668945 6.9859771728515625 0.422873377799987793 255 0 246 218 38
4.80887222290039062 6.99050807952880859 0.45231059193611145 255 0 246 218 38
4.83849239349365234 6.95010900497436523 0.473176270723342896 255 0 246 218 38
4.78738784790039062 6.9941105842590332 0.41860276460647583 255 0 246 218 38
4.88801383972167969 6.94281291961669922 0.135963320732116699 255 0 246 218 38
4.90085029602050781 6.95736122131347656 0.107780486345291138 255 0 246 218 38
4.88145065307617188 6.88433122634887695 0.308611750602722168 255 0 246 218 38
4.87427473068237305 6.91275119781494141 0.342240482568740845 255 0 246 218 38
4.8821568489074707 6.91245603561401367 0.307601034641265869 255 0 246 218 38
4.87152528762817383 6.90225505828857422 0.266947746276855469 255 0 246 218 38
4.88381338119506836 6.99315166473388672 0.115143097937107086 255 0 246 218 38
4.88846921920776367 6.96164846420288086 0.138424918055534363 255 0 246 218 38
4.84308671951293945 6.95479011535644531 0.394694238901138306 255 0 246 218 38
4.81504201889038086 6.99409723281860352 0.371314167976379395 255 0 246 218 38
4.82392787933349609 6.99425029754638672 0.325338482856750488 255 0 246 218 38
4.83282613754272461 6.97549581527709961 0.363269299268722534 255 0 246 218 38
4.8578190803527832 6.95869302749633789 0.311116844415664673 255 0 246 218 38
4.88462448120117188 6.93734598159790039 0.178701072931289673 255 0 246 218 38
4.88798809051513672 6.93445205688476562 0.224344700574874878 255 0 246 218 38
4.75726842880249023 6.94731616973876953 0.579928159713745117 255 0 246 218 38
4.78693914413452148 6.93321752548217773 0.483319222927093506 255 0 246 218 38
4.78883457183837891 6.98228931427001953 0.499658823013305664 255 0 246 218 38
4.76625347137451172 6.9409642219543457 0.495111703872680664 255 0 246 218 38
4.74757528305053711 6.94371795654296875 0.468062609434127808 255 0 246 218 38
4.79261255264282227 6.97769594192504883 0.48578721284866333 255 0 246 218 38
4.77062273025512695 6.96231365203857422 0.426473915576934814 255 0 246 218 38
4.78118610382080078 6.96499824523925781 0.449063032865524292 255 0 246 218 38
4.87575101852416992 6.93983983993530273 0.264811545610427856 255 0 246 218 38
4.83629512786865234 6.90030002593994141 0.666947662830352783 255 0 246 218 38
4.80808544158935547 6.92925167083740234 0.689151644706726074 255 0 246 218 38
4.83251237869262695 6.87752246856689453 0.720330357551574707 255 0 246 218 38
4.84054803848266602 6.88246393203735352 0.670246541500091553 255 0 246 218 38
4.77892303466796875 6.96749353408813477 0.666461288928985596 255 0 246 218 38
4.82858419418334961 6.86857986450195312 0.633821725845336914 255 0 246 218 38
4.81633234024047852 6.85830116271972656 0.690081119537353516 255 0 246 218 38
4.82416439056396484 6.84546613693237305 0.663144350051879883 255 0 246 218 38
4.7483820915222168 6.94287681579589844 0.668930351734161377 255 0 246 218 38
4.75438404083251953 6.93919992446899414 0.618196487426757812 255 0 246 218 38
4.76176309585571289 6.95713949203491211 0.509607911109924316 255 0 246 218 38
4.77928924560546875 6.98660612106323242 0.541942000389099121 255 0 246 218 38
4.77308034896850586 6.97371292114257812 0.569320261478424072 255 0 246 218 38
4.78612947463989258 6.97244882583618164 0.634277105331420898 255 0 246 218 38
4.77053403854370117 6.97928333282470703 0.606928825378417969 255 0 246 218 38
4.77081108093261719 6.97452640533447266 0.640825927257537842 255 0 246 218 38
4.79425621032714844 6.97539520263671875 0.577186286449432373 255 0 246 218 38
4.84787559509277344 6.89935445785522461 0.592086851596832275 255 0 246 218 38
4.82610177993774414 6.94066143035888672 0.560595273971557617 255 0 246 218 38
4.83070278167724609 6.87752342224121094 0.556221961975097656 255 0 246 218 38
4.82701396942138672 6.93197298049926758 0.601838529109954834 255 0 246 218 38
4.81977081298828125 6.93010902404785156 0.650098800659179688 255 0 246 218 38
4.84417057037353516 6.88547277450561523 0.617098867893218994 255 0 246 218 38
4.851898193359375 6.89476251602172852 0.557119190692901611 255 0 246 218 38
4.78960704803466797 6.92828750610351562 0.70775306224822998 255 0 246 218 38
4.76558780670166016 6.95588064193725586 0.690866589546203613 255 0 246 218 38
4.93536710739135742 6.68674468994140625 0.340874582529067993 255 0 246 218 38
4.94722127914428711 6.68373632431030273 0.338650882244110107 255 0 246 218 38
4.94051647186279297 6.67756223678588867 0.296545088291168213 255 0 246 218 38
4.89641857147216797 6.70694208145141602 0.400325983762741089 255 0 246 218 38
4.90881156921386719 6.70995712280273438 0.310263514518737793 255 0 246 218 38
4.87341594696044922 6.87846565246582031 0.324791669845581055 255 0 246 218 38
4.89391040802001953 6.8045806884765625 0.342904388904571533 255 0 246 218 38
4.9076685905456543 6.818206787109375 0.335888415575027466 255 0 246 218 38
4.8789515495300293 6.84116077423095703 0.326595336198806763 255 0 246 218 38
4.890045166015625 6.79490327835083008 0.267065346240997314 255 0 246 218 38
4.89474582672119141 6.78159379959106445 0.245291590690612793 255 0 246 218 38
4.92112922668457031 6.77878236770629883 0.264932781457901001 255 0 246 218 38
4.93056821823120117 6.76691436767578125 0.3123016357421875 255 0 246 218 38
4.88673543930053711 6.76528406143188477 0.277713686227798462 255 0 246 218 38
4.88405704498291016 6.79703426361083984 0.311387836933135986 255 0 246 218 38
4.94518041610717773 6.78835391998291016 0.114363335072994232 255 0 246 218 38
4.97749996185302734 6.7239069938659668 0.159490376710891724 255 0 246 218 38
4.97713232040405273 6.7369384765625 0.126454129815101624 255 0 246 218 38
4.88544273376464844 6.72085094451904297 0.394748032093048096 255 0 246 218 38
4.94631433486938477 6.74101972579956055 0.38543999195098877 255 0 246 218 38
4.93816804885864258 6.73845005035400391 0.418347179889678955 255 0 246 218 38
4.92160606384277344 6.76482200622558594 0.401609331369400024 255 0 246 218 38
4.95304584503173828 6.71599197387695312 0.416141271591186523 255 0 246 218 38
4.89494943618774414 6.78706932067871094 0.448712468147277832 255 0 246 218 38
4.89958429336547852 6.78993511199951172 0.39139130711555481 255 0 246 218 38
4.87962055206298828 6.79296398162841797 0.435939043760299683 255 0 246 218 38
4.95891904830932617 6.71919441223144531 0.345052838325500488 255 0 246 218 38
4.95134639739990234 6.69289302825927734 0.370764791965484619 255 0 246 218 38
4.95781755447387695 6.70939064025878906 0.370627343654632568 255 0 246 218 38
4.87857198715209961 6.76594161987304688 0.32225799560546875 255 0 246 218 38
4.9543147087097168 6.70511341094970703 0.413395851850509644 255 0 246 218 38
4.90982770919799805 6.695037841796875 0.401877164840698242 255 0 246 218 38
4.88766288757324219 6.7089686393737793 0.455113261938095093 255 0 246 218 38
4.91880607604980469 6.68821382522583008 0.472995460033416748 255 0 246 218 38
4.94289636611938477 6.70210838317871094 0.456442832946777344 255 0 246 218 38
4.92866849899291992 6.68579626083374023 0.41030237078666687 255 0 246 218 38
4.8649749755859375 6.75849819183349609 0.353483498096466064 255 0 246 218 38
4.87010002136230469 6.71008634567260742 0.466408789157867432 255 0 246 218 38
4.96845483779907227 6.69388484954833984 0.309156656265258789 255 0 246 218 38
4.96426773071289062 6.70504426956176758 0.344369709491729736 255 0 246 218 38
4.97426557540893555 6.69495105743408203 0.258427262306213379 255 0 246 218 38
4.77018404006958008 6.62333011627197266 0.494372725486755371 255 0 246 218 38
4.77805614471435547 6.64096641540527344 0.476588845252990723 255 0 246 218 38
4.85035514831542969 6.87099313735961914 0.49157947301864624 255 0 246 218 38
4.86119461059570312 6.79913234710693359 0.483176827430725098 255 0 246 218 38
4.85885953903198242 6.84459352493286133 0.536569118499755859 255 0 246 218 38
4.83944416046142578 6.82621431350708008 0.48263201117515564 255 0 246 218 38
4.86068010330200195 6.8392786979675293 0.492937982082366943 255 0 246 218 38
4.83460187911987305 6.8620600700378418 0.475671589374542236 255 0 246 218 38
4.88914728164672852 6.69285011291503906 0.517444610595703125 255 0 246 218 38
4.7983403205871582 6.64225292205810547 0.494834750890731812 255 0 246 218 38
4.83373928070068359 6.65707778930664062 0.493493825197219849 255 0 246 218 38
4.86606597900390625 6.71668624877929688 0.515467941761016846 255 0 246 218 38
4.83490514755249023 6.68331289291381836 0.475955814123153687 255 0 246 218 38
4.85881328582763672 6.69655179977416992 0.474296122789382935 255 0 246 218 38
4.74920082092285156 6.93916225433349609 0.241628438234329224 255 0 246 218 38
4.74860572814941406 6.92388820648193359 0.258037775754928589 255 0 246 218 38
4.7783350944519043 6.88193321228027344 0.288762450218200684 255 0 246 218 38
4.76014804840087891 6.91241168975830078 0.271741181612014771 255 0 246 218 38
4.77189111709594727 6.90069484710693359 0.257350891828536987 255 0 246 218 38
4.79723596572875977 6.90526580810546875 0.266481161117553711 255 0 246 218 38
4.78987264633178711 6.92533493041992188 0.292409956455230713 255 0 246 218 38
4.82802724838256836 6.79006195068359375 0.440949708223342896 255 0 246 218 38
4.83626937866210938 6.76016712188720703 0.437497586011886597 255 0 246 218 38
4.8586115837097168 6.78673791885375977 0.43483126163482666 255 0 246 218 38
4.8637847900390625 6.75629854202270508 0.396202653646469116 255 0 246 218 38
4.90425348281860352 6.77024030685424805 0.50405573844909668 255 0 246 218 38
4.88748455047607422 6.79303741455078125 0.495939731597900391 255 0 246 218 38
4.91551637649536133 6.7576298713684082 0.545064926147460938 255 0 246 218 38
4.88533401489257812 6.80766773223876953 0.535004675388336182 255 0 246 218 38
4.94132280349731445 6.71891164779663086 0.475003838539123535 255 0 246 218 38
4.73342657089233398 6.64824295043945312 0.462195992469787598 255 0 246 218 38
4.77527093887329102 6.66047954559326172 0.471118390560150146 255 0 246 218 38
4.8961181640625 6.65816640853881836 0.294940948486328125 255 0 246 218 38
4.92440700531005859 6.67130899429321289 0.29650413990020752 255 0 246 218 38
4.96127510070800781 6.74631118774414062 0.165137246251106262 255 0 246 218 38
4.94834423065185547 6.75121116638183594 0.234847679734230042 255 0 246 218 38
4.95777654647827148 6.74580574035644531 0.205132544040679932 255 0 246 218 38
4.92906045913696289 6.77463340759277344 0.227251484990119934 255 0 246 218 38
4.91011190414428711 6.78014945983886719 0.210427433252334595 255 0 246 218 38
4.93036317825317383 6.77823305130004883 0.158787325024604797 255 0 246 218 38
4.89158058166503906 6.77193450927734375 0.216441690921783447 255 0 246 218 38
4.88524246215820312 6.81016826629638672 0.510686099529266357 255 0 246 218 38
4.8646998405456543 6.84602594375610352 0.518171012401580811 255 0 246 218 38
5.0011749267578125 6.70763063430786133 0.108021631836891174 255 0 246 218 38
4.9935765266418457 6.69642734527587891 0.135799169540405273 255 0 246 218 38
4.8442845344543457 6.78502702713012695 0.466949373483657837 255 0 246 218 38
4.98501157760620117 6.69349002838134766 0.202352762222290039 255 0 246 218 38
4.97487449645996094 6.70908784866333008 0.252492725849151611 255 0 246 218 38
4.93897247314453125 6.7551121711730957 0.298532724380493164 255 0 246 218 38
4.90374374389648438 6.71118879318237305 0.34571605920791626 255 0 246 218 38
4.92972755432128906 6.77990341186523438 0.341375023126602173 255 0 246 218 38
4.935638427734375 6.76022911071777344 0.370009362697601318 255 0 246 218 38
4.90553474426269531 6.79269170761108398 0.363029986619949341 255 0 246 218 38
4.88108158111572266 6.78892993927001953 0.381243199110031128 255 0 246 218 38
4.80899953842163086 6.90939760208129883 0.305011093616485596 255 0 246 218 38
4.81986236572265625 6.88419246673583984 0.30103948712348938 255 0 246 218 38
4.83565187454223633 6.89272832870483398 0.317020893096923828 255 0 246 218 38
4.8186030387878418 6.89434957504272461 0.277354419231414795 255 0 246 218 38
4.79857587814331055 6.92429018020629883 0.247450172901153564 255 0 246 218 38
4.93198871612548828 6.70083332061767578 0.518135428428649902 255 0 246 218 38
4.89213895797729492 6.68513345718383789 0.492252618074417114 255 0 246 218 38
4.86093044281005859 6.67159605026245117 0.49444812536239624 255 0 246 218 38
4.93326377868652344 6.70938634872436523 0.543307602405548096 255 0 246 218 38
4.79206228256225586 6.87240505218505859 0.291601181030273438 255 0 246 218 38
4.98003196716308594 6.71233320236206055 0.201608240604400635 255 0 246 218 38
4.85933303833007812 6.85397052764892578 0.314012676477432251 255 0 246 218 38
4.84544992446899414 6.71562671661376953 0.733167588710784912 255 0 246 218 38
4.88186073303222656 6.7894444465637207 0.564054608345031738 255 0 246 218 38
4.87086391448974609 6.80260229110717773 0.627152919769287109 255 0 246 218 38
4.8551030158996582 6.80929040908813477 0.686648130416870117 255 0 246 218 38
4.85186290740966797 6.81629562377929688 0.645602226257324219 255 0 246 218 38
4.86689281463623047 6.79451560974121094 0.684201300144195557 255 0 246 218 38
4.82975959777832031 6.82799434661865234 0.694675266742706299 255 0 246 218 38
4.85172033309936523 6.72281265258789062 0.614483833312988281 255 0 246 218 38
4.8611602783203125 6.72156286239624023 0.559231758117675781 255 0 246 218 38
4.83885335922241211 6.73306798934936523 0.639505743980407715 255 0 246 218 38
4.910003662109375 6.73071765899658203 0.685294687747955322 255 0 246 218 38
4.88153457641601562 6.76749038696289062 0.707995057106018066 255 0 246 218 38
4.89497041702270508 6.76355886459350586 0.649978399276733398 255 0 246 218 38
4.90299844741821289 6.73029708862304688 0.72046351432800293 255 0 246 218 38
4.91972827911376953 6.79283857345581055 0.797380626201629639 255 0 246 218 38
4.90982341766357422 6.71384477615356445 0.676973402500152588 255 0 246 218 38
4.88547849655151367 6.7033381462097168 0.692754805088043213 255 0 246 218 38
4.76022863388061523 6.88958358764648438 0.753747940063476562 255 0 246 218 38
4.82598304748535156 6.8675684928894043 0.758554518222808838 255 0 246 218 38
4.85408210754394531 6.80318355560302734 0.731315314769744873 255 0 246 218 38
4.83628320693969727 6.82760000228881836 0.725303053855895996 255 0 246 218 38
4.86273002624511719 6.85357475280761719 0.75126802921295166 255 0 246 218 38
4.7923583984375 6.87206315994262695 0.742555022239685059 255 0 246 218 38
4.86407947540283203 6.80957984924316406 0.747941851615905762 255 0 246 218 38
4.82583475112915039 6.84400367736816406 0.737588942050933838 255 0 246 218 38
4.90148115158081055 6.71349668502807617 0.712090075016021729 255 0 246 218 38
4.91660404205322266 6.72584724426269531 0.782580852508544922 255 0 246 218 38
4.89987087249755859 6.72041654586791992 0.757804691791534424 255 0 246 218 38
4.89136886596679688 6.75036907196044922 0.757165849208831787 255 0 246 218 38
4.89114904403686523 6.79391288757324219 0.765517115592956543 255 0 246 218 38
4.90828132629394531 6.79495811462402344 0.778299629688262939 255 0 246 218 38
4.90549039840698242 6.83917093276977539 0.796752691268920898 255 0 246 218 38
4.86311721801757812 6.80586767196655273 0.558671236038208008 255 0 246 218 38
4.85742568969726562 6.81677436828613281 0.607513368129730225 255 0 246 218 38
4.87429618835449219 6.80217742919921875 0.578580260276794434 255 0 246 218 38
4.89312887191772461 6.85345220565795898 0.778092503547668457 255 0 246 218 38
4.87751102447509766 6.70713472366333008 0.587653100490570068 255 0 246 218 38
4.89188957214355469 6.69295692443847656 0.576110363006591797 255 0 246 218 38
4.92398738861083984 6.71144199371337891 0.581161975860595703 255 0 246 218 38
4.89191341400146484 6.69233989715576172 0.627672731876373291 255 0 246 218 38
4.90641117095947266 6.69678306579589844 0.593827188014984131 255 0 246 218 38
4.90619945526123047 6.68936347961425781 0.547720730304718018 255 0 246 218 38
4.92058753967285156 6.73102712631225586 0.617217004299163818 255 0 246 218 38
4.89903402328491211 6.76599931716918945 0.569777846336364746 255 0 246 218 38
4.9013676643371582 6.76472091674804688 0.606456518173217773 255 0 246 218 38
4.92814159393310547 6.73013591766357422 0.541157841682434082 255 0 246 218 38
4.91775417327880859 6.73573493957519531 0.576415657997131348 255 0 246 218 38
4.83149290084838867 6.73090648651123047 0.719151198863983154 255 0 246 218 38
4.83485603332519531 6.73084402084350586 0.685923874378204346 255 0 246 218 38
4.87142848968505859 6.70390748977661133 0.663316667079925537 255 0 246 218 38
4.86960506439208984 6.70187187194824219 0.712665200233459473 255 0 246 218 38
