ply
format ascii 1.0
element vertex 601
property float x
property float y
property float z
property uchar red
property uchar green
property uchar blue
property uchar alpha
property uint label
end_header
7.34199094772338867 1.96336472034454346 0.622319042682647705 190 153 112 255 1
7.2868647575378418 1.94289827346801758 0.612418293952941895 190 153 112 255 1
7.34262275695800781 1.96277844905853271 0.590634822845458984 190 153 112 255 1
7.24287652969360352 1.92259669303894043 0.557738244533538818 190 153 112 255 1
7.2621006965637207 1.93594825267791748 0.579468667507171631 190 153 112 255 1
7.32334280014038086 1.90971517562866211 0.969869375228881836 190 153 112 255 1
7.47007036209106445 2.01684212684631348 0.543262600898742676 190 153 112 255 1
7.31801462173461914 1.93179953098297119 0.795150160789489746 190 153 112 255 1
7.44331121444702148 1.97790348529815674 0.813534319400787354 190 153 112 255 1
7.47444772720336914 1.97992265224456787 0.828197121620178223 190 153 112 255 1
7.43619012832641602 1.92908608913421631 1.16868221759796143 190 153 112 255 1
7.36133098602294922 1.92703759670257568 0.898628950119018555 190 153 112 255 1
7.40275096893310547 1.94039058685302734 0.949442565441131592 190 153 112 255 1
7.29127836227416992 1.92856621742248535 0.720228135585784912 190 153 112 255 1
7.31768274307250977 1.93901753425598145 0.755602061748504639 190 153 112 255 1
7.28072786331176758 1.92850339412689209 0.753468692302703857 190 153 112 255 1
7.49840021133422852 1.99653506278991699 0.779243528842926025 190 153 112 255 1
7.46643924713134766 1.99130761623382568 0.77312767505645752 190 153 112 255 1
7.2955012321472168 1.88169646263122559 1.0485304594039917 190 153 112 255 1
7.32589340209960938 1.90232694149017334 0.99955904483795166 190 153 112 255 1
7.47156000137329102 1.96053540706634521 0.998605489730834961 190 153 112 255 1
7.49656343460083008 1.97068297863006592 0.973667323589324951 190 153 112 255 1
7.43372535705566406 1.98540008068084717 0.69054800271987915 190 153 112 255 1
7.42243242263793945 1.97980916500091553 0.724358677864074707 190 153 112 255 1
7.46591711044311523 2.01283144950866699 0.573392987251281738 190 153 112 255 1
7.45382833480834961 2.00345778465270996 0.622327327728271484 190 153 112 255 1
7.4935450553894043 2.02474856376647949 0.587231993675231934 190 153 112 255 1
7.34542560577392578 1.95707440376281738 0.677288472652435303 190 153 112 255 1
7.33172941207885742 1.94542014598846436 0.696345329284667969 190 153 112 255 1
7.30187559127807617 1.9402691125869751 0.665313959121704102 190 153 112 255 1
7.35780096054077148 1.95360481739044189 0.724709391593933105 190 153 112 255 1
7.43062400817871094 1.95040607452392578 0.924160957336425781 190 153 112 255 1
7.5016937255859375 1.97889161109924316 0.918783307075500488 190 153 112 255 1
7.46935081481933594 1.96472668647766113 0.948589742183685303 190 153 112 255 1
7.43966388702392578 1.95688045024871826 0.88472515344619751 190 153 112 255 1
7.3228154182434082 1.91137409210205078 0.901453375816345215 190 153 112 255 1
7.2465972900390625 1.91052031517028809 0.705255866050720215 190 153 112 255 1
7.43328380584716797 1.92706644535064697 1.20559465885162354 190 153 112 255 1
7.52793788909912109 1.96722400188446045 1.09251594543457031 190 153 112 255 1
7.45279026031494141 1.94692158699035645 1.07237124443054199 190 153 112 255 1
7.48367118835449219 1.95680475234985352 1.06595444679260254 190 153 112 255 1
7.49686384201049805 1.95674943923950195 1.10738980770111084 190 153 112 255 1
7.45007658004760742 1.9359891414642334 1.1002422571182251 190 153 112 255 1
7.38213443756103516 1.91525554656982422 1.09255301952362061 190 153 112 255 1
7.36913919448852539 1.90976822376251221 1.06197011470794678 190 153 112 255 1
7.40801143646240234 1.92344224452972412 1.08902561664581299 190 153 112 255 1
7.33020782470703125 1.87990248203277588 1.19413554668426514 190 153 112 255 1
7.33440542221069336 1.87515687942504883 1.2157745361328125 190 153 112 255 1
7.27007102966308594 1.8590087890625 1.2262575626373291 190 153 112 255 1
7.30174970626831055 1.86162030696868896 1.20279645919799805 190 153 112 255 1
7.42725658416748047 1.94105923175811768 1.02909636497497559 190 153 112 255 1
7.40571117401123047 1.93370747566223145 0.993073165416717529 190 153 112 255 1
7.27838134765625 1.91818094253540039 0.792371094226837158 190 153 112 255 1
7.30336332321166992 1.91218852996826172 0.833989083766937256 190 153 112 255 1
7.3594822883605957 1.89725005626678467 1.16149115562438965 190 153 112 255 1
7.32058429718017578 1.87871432304382324 1.16112971305847168 190 153 112 255 1
7.2713017463684082 1.85713326930999756 1.18187761306762695 190 153 112 255 1
7.30450534820556641 1.8667442798614502 1.16236162185668945 190 153 112 255 1
7.37749052047729492 1.95498692989349365 0.784267961978912354 190 153 112 255 1
7.35851287841796875 1.93593025207519531 0.824991703033447266 190 153 112 255 1
7.40724325180053711 1.95993256568908691 0.818268656730651855 190 153 112 255 1
7.35950708389282227 1.92714571952819824 0.86669546365737915 190 153 112 255 1
7.42158412933349609 1.95548534393310547 0.844952285289764404 190 153 112 255 1
7.39529943466186523 1.96364378929138184 0.741553723812103271 190 153 112 255 1
7.42363739013671875 1.97548425197601318 0.755065798759460449 190 153 112 255 1
7.39898347854614258 1.9834287166595459 0.571139991283416748 190 153 112 255 1
7.40491580963134766 1.98783576488494873 0.611354589462280273 190 153 112 255 1
7.37670421600341797 1.97318637371063232 0.622078955173492432 190 153 112 255 1
7.24588298797607422 1.85180449485778809 1.21950876712799072 190 153 112 255 1
7.24113035202026367 1.85233759880065918 1.16624152660369873 190 153 112 255 1
7.70484685897827148 2.11117243766784668 0.498193681240081787 190 153 112 255 1
7.68923854827880859 2.0931251049041748 0.530271828174591064 190 153 112 255 1
8.14066028594970703 2.28828024864196777 0.49870908260345459 190 153 112 255 1
8.10213279724121094 2.27218127250671387 0.487838268280029297 190 153 112 255 1
8.15549182891845703 2.29204583168029785 0.544607877731323242 190 153 112 255 1
8.06946277618408203 2.25434422492980957 0.559273421764373779 190 153 112 255 1
8.09265422821044922 2.29834985733032227 0.465651154518127441 190 153 112 255 1
8.13377857208251953 2.29190659523010254 0.485272794961929321 190 153 112 255 1
7.58127832412719727 2.09751605987548828 0.174410462379455566 190 153 112 255 1
7.61896133422851562 2.10355114936828613 0.195963427424430847 190 153 112 255 1
7.60074234008789062 2.11612987518310547 0.0567921251058578491 190 153 112 255 1
7.63658332824707031 2.12269234657287598 0.16064019501209259 190 153 112 255 1
7.61509180068969727 2.1136937141418457 0.129977822303771973 190 153 112 255 1
7.64561319351196289 2.1277158260345459 0.124715365469455719 190 153 112 255 1
7.68448257446289062 2.12535309791564941 0.197716265916824341 190 153 112 255 1
7.75368404388427734 2.14981460571289062 0.220395579934120178 190 153 112 255 1
7.68459701538085938 2.10952019691467285 0.421301037073135376 190 153 112 255 1
7.72124958038330078 2.12540459632873535 0.412576496601104736 190 153 112 255 1
7.73941993713378906 2.12711930274963379 0.453611433506011963 190 153 112 255 1
7.90013599395751953 2.24174261093139648 0.153209969401359558 190 153 112 255 1
7.81759977340698242 2.16196250915527344 0.462183117866516113 190 153 112 255 1
7.6954493522644043 2.12240743637084961 0.244715705513954163 190 153 112 255 1
7.7397913932800293 2.14125609397888184 0.233457386493682861 190 153 112 255 1
7.71481084823608398 2.13125991821289062 0.282583773136138916 190 153 112 255 1
7.71085739135742188 2.16214919090270996 0.0567054972052574158 190 153 112 255 1
7.57885217666625977 2.07338523864746094 0.351570755243301392 190 153 112 255 1
7.80301189422607422 2.19776058197021484 0.116117648780345917 190 153 112 255 1
7.78096818923950195 2.18388748168945312 0.0940777361392974854 190 153 112 255 1
7.7457737922668457 2.167724609375 0.141587838530540466 190 153 112 255 1
7.8168492317199707 2.1995091438293457 0.151655927300453186 190 153 112 255 1
8.13599014282226562 2.29942679405212402 0.427481144666671753 190 153 112 255 1
8.14097309112548828 2.29945182800292969 0.40330427885055542 190 153 112 255 1
8.06967067718505859 2.29041814804077148 0.407373994588851929 190 153 112 255 1
8.11813640594482422 2.30807042121887207 0.475299805402755737 190 153 112 255 1
8.08821010589599609 2.29241085052490234 0.443307429552078247 190 153 112 255 1
8.25151538848876953 2.33797264099121094 0.489284664392471313 190 153 112 255 1
8.30196952819824219 2.36499547958374023 0.483738213777542114 190 153 112 255 1
8.28030300140380859 2.34745121002197266 0.516496479511260986 190 153 112 255 1
7.83234214782714844 2.19328069686889648 0.209097936749458313 190 153 112 255 1
7.85344982147216797 2.20074963569641113 0.220184788107872009 190 153 112 255 1
7.86732387542724609 2.21788430213928223 0.19065442681312561 190 153 112 255 1
7.83732223510742188 2.20539140701293945 0.174905076622962952 190 153 112 255 1
7.86914873123168945 2.2218177318572998 0.164598405361175537 190 153 112 255 1
7.88030433654785156 2.23643851280212402 0.179163023829460144 190 153 112 255 1
7.77773046493530273 2.15603804588317871 0.299464613199234009 190 153 112 255 1
7.93109273910522461 2.20301532745361328 0.458146542310714722 190 153 112 255 1
7.86018800735473633 2.18368983268737793 0.369915425777435303 190 153 112 255 1
7.86004209518432617 2.17384552955627441 0.423750013113021851 190 153 112 255 1
7.91076946258544922 2.19238543510437012 0.4328632652759552 190 153 112 255 1
7.96621799468994141 2.22014546394348145 0.409251660108566284 190 153 112 255 1
7.5003361701965332 2.04987549781799316 0.235061958432197571 190 153 112 255 1
7.56084871292114258 2.0714118480682373 0.258750081062316895 190 153 112 255 1
7.55052757263183594 2.06455278396606445 0.294181764125823975 190 153 112 255 1
7.99266624450683594 2.25391864776611328 0.378576070070266724 190 153 112 255 1
8.06984615325927734 2.29226398468017578 0.373640179634094238 190 153 112 255 1
8.07443618774414062 2.27394962310791016 0.355789899826049805 190 153 112 255 1
8.00764751434326172 2.24783921241760254 0.354702115058898926 190 153 112 255 1
8.06868457794189453 2.25954389572143555 0.355758368968963623 190 153 112 255 1
8.05152320861816406 2.27033114433288574 0.379850864410400391 190 153 112 255 1
8.02425765991210938 2.24433636665344238 0.353222668170928955 190 153 112 255 1
7.83498430252075195 2.16368865966796875 0.505271852016448975 190 153 112 255 1
8.29900264739990234 2.36271548271179199 0.399429112672805786 190 153 112 255 1
8.29933929443359375 2.36083388328552246 0.445454925298690796 190 153 112 255 1
8.14304447174072266 2.34636187553405762 0.370551526546478271 190 153 112 255 1
7.76499080657958984 2.17258524894714355 0.181118637323379517 190 153 112 255 1
7.7386474609375 2.13436412811279297 0.336002320051193237 190 153 112 255 1
7.69470500946044922 2.11811518669128418 0.316896796226501465 190 153 112 255 1
7.55979299545288086 2.05733895301818848 0.427665919065475464 190 153 112 255 1
7.56737375259399414 2.06036233901977539 0.394098609685897827 190 153 112 255 1
7.52439117431640625 2.04387283325195312 0.482888221740722656 190 153 112 255 1
7.57949495315551758 2.06138873100280762 0.492948085069656372 190 153 112 255 1
7.5072779655456543 2.03674745559692383 0.445378035306930542 190 153 112 255 1
7.49499177932739258 2.07525229454040527 0.0628819540143013 190 153 112 255 1
7.53229236602783203 2.06881976127624512 0.218415111303329468 190 153 112 255 1
7.54119300842285156 2.07489943504333496 0.193973705172538757 190 153 112 255 1
7.54445695877075195 2.04553937911987305 0.514603734016418457 190 153 112 255 1
7.55597209930419922 2.04606914520263672 0.554033994674682617 190 153 112 255 1
7.52337408065795898 2.03481292724609375 0.546438753604888916 190 153 112 255 1
7.63886833190917969 2.08633303642272949 0.497346401214599609 190 153 112 255 1
7.98695898056030273 2.24406337738037109 0.361702382564544678 190 153 112 255 1
7.53241586685180664 2.05564451217651367 0.357215762138366699 190 153 112 255 1
7.88556194305419922 2.22969985008239746 0.127157583832740784 190 153 112 255 1
7.90580940246582031 2.23637914657592773 0.120080195367336273 190 153 112 255 1
7.86168146133422852 2.21995306015014648 0.0615038648247718811 190 153 112 255 1
7.67667627334594727 2.14670228958129883 0.0580965429544448853 190 153 112 255 1
8.24253368377685547 2.3131859302520752 0.335327655076980591 190 153 112 255 1
8.21297836303710938 2.31300067901611328 0.354925364255905151 190 153 112 255 1
8.21785449981689453 2.31942987442016602 0.518334805965423584 190 153 112 255 1
8.19968128204345703 2.31769847869873047 0.479692310094833374 190 153 112 255 1
8.16883754730224609 2.31285452842712402 0.47739720344543457 190 153 112 255 1
7.88317155838012695 2.18528461456298828 0.530046164989471436 190 153 112 255 1
7.89136886596679688 2.18818783760070801 0.480230152606964111 190 153 112 255 1
8.26413440704345703 2.34811758995056152 0.394917428493499756 190 153 112 255 1
8.26556968688964844 2.3285520076751709 0.351155966520309448 190 153 112 255 1
8.26083755493164062 2.35039806365966797 0.371673077344894409 190 153 112 255 1
8.29054737091064453 2.37110757827758789 0.372033536434173584 190 153 112 255 1
7.77965545654296875 2.16216325759887695 0.220355197787284851 190 153 112 255 1
7.82765579223632812 2.17585182189941406 0.277247309684753418 190 153 112 255 1
7.82696342468261719 2.17546176910400391 0.257565021514892578 190 153 112 255 1
7.91833782196044922 2.25963997840881348 0.0767495632171630859 190 153 112 255 1
7.91501331329345703 2.24325203895568848 0.0879784822463989258 190 153 112 255 1
7.92146205902099609 2.25716948509216309 0.117371588945388794 190 153 112 255 1
8.15457630157470703 2.30489993095397949 0.406835794448852539 190 153 112 255 1
8.15022182464599609 2.34574460983276367 0.398474335670471191 190 153 112 255 1
8.16857337951660156 2.33359408378601074 0.420286118984222412 190 153 112 255 1
8.229248046875 2.33024263381958008 0.454489707946777344 190 153 112 255 1
8.17853546142578125 2.33219265937805176 0.43593364953994751 190 153 112 255 1
8.22754764556884766 2.3385016918182373 0.402502894401550293 190 153 112 255 1
8.23818874359130859 2.33805418014526367 0.427448302507400513 190 153 112 255 1
7.61339378356933594 2.08923864364624023 0.338694572448730469 190 153 112 255 1
7.6949610710144043 2.11896347999572754 0.372301310300827026 190 153 112 255 1
7.60645246505737305 2.08103752136230469 0.392144620418548584 190 153 112 255 1
7.63662433624267578 2.09078383445739746 0.401492029428482056 190 153 112 255 1
7.59759950637817383 2.08135104179382324 0.311220496892929077 190 153 112 255 1
7.66917800903320312 2.10981392860412598 0.315697610378265381 190 153 112 255 1
7.67082548141479492 2.10381102561950684 0.394359886646270752 190 153 112 255 1
7.63284873962402344 2.10191035270690918 0.259730011224746704 190 153 112 255 1
7.65092658996582031 2.10725164413452148 0.226525291800498962 190 153 112 255 1
7.62738895416259766 2.09161162376403809 0.308084577322006226 190 153 112 255 1
7.59551668167114258 2.08694148063659668 0.274170130491256714 190 153 112 255 1
7.59117603302001953 2.09070324897766113 0.217068269848823547 190 153 112 255 1
7.63043308258056641 2.07815957069396973 0.524298548698425293 190 153 112 255 1
8.01871204376220703 2.23697161674499512 0.482541918754577637 190 153 112 255 1
7.75295925140380859 2.13050532341003418 0.502189159393310547 190 153 112 255 1
7.78349828720092773 2.13851189613342285 0.534471392631530762 190 153 112 255 1
7.95838451385498047 2.22056031227111816 0.342480570077896118 190 153 112 255 1
7.91005229949951172 2.19915342330932617 0.378364890813827515 190 153 112 255 1
7.95741462707519531 2.23217201232910156 0.367146670818328857 190 153 112 255 1
7.92641735076904297 2.19522523880004883 0.326794713735580444 190 153 112 255 1
7.92023754119873047 2.21377801895141602 0.358695149421691895 190 153 112 255 1
7.97882413864135742 2.22465848922729492 0.447387337684631348 190 153 112 255 1
8.02075672149658203 2.23718023300170898 0.514999568462371826 190 153 112 255 1
7.92087602615356445 2.19854116439819336 0.499916136264801025 190 153 112 255 1
7.96430730819702148 2.21757602691650391 0.510752081871032715 190 153 112 255 1
7.6288762092590332 2.13078212738037109 0.060250449925661087 190 153 112 255 1
7.74746608734130859 2.16148853302001953 0.180452123284339905 190 153 112 255 1
8.07061100006103516 2.25966739654541016 0.512722015380859375 190 153 112 255 1
7.5463557243347168 2.08391499519348145 0.144693359732627869 190 153 112 255 1
7.54717922210693359 2.08871340751647949 0.0785153284668922424 190 153 112 255 1
7.54549455642700195 2.08838605880737305 0.108964234590530396 190 153 112 255 1
7.57144927978515625 2.10634446144104004 0.0600301697850227356 190 153 112 255 1
7.86102008819580078 2.18084001541137695 0.312204480171203613 190 153 112 255 1
7.8710780143737793 2.1863868236541748 0.309586584568023682 190 153 112 255 1
7.84678936004638672 2.22063875198364258 0.236948713660240173 190 153 112 255 1
7.84324407577514648 2.19208812713623047 0.282794773578643799 190 153 112 255 1
7.84136772155761719 2.21465086936950684 0.279771029949188232 190 153 112 255 1
7.83495283126831055 2.22507071495056152 0.268211245536804199 190 153 112 255 1
7.88001775741577148 2.19652915000915527 0.346904397010803223 190 153 112 255 1
8.17059612274169922 2.33810162544250488 0.356405049562454224 190 153 112 255 1
8.17634773254394531 2.32694005966186523 0.367238670587539673 190 153 112 255 1
8.21528720855712891 2.34329056739807129 0.383086800575256348 190 153 112 255 1
8.14626598358154297 2.34570145606994629 0.385052949190139771 190 153 112 255 1
8.18772602081298828 2.32004785537719727 0.353542566299438477 190 153 112 255 1
8.27707862854003906 2.3291013240814209 0.30570298433303833 190 153 112 255 1
8.31001758575439453 2.34341931343078613 0.311740785837173462 190 153 112 255 1
7.77390241622924805 2.15070509910583496 0.394559085369110107 190 153 112 255 1
7.8102569580078125 2.15820097923278809 0.431038618087768555 190 153 112 255 1
7.77192401885986328 2.14082241058349609 0.474027931690216064 190 153 112 255 1
7.62449884414672852 2.08181333541870117 0.449140697717666626 190 153 112 255 1
7.68874883651733398 2.10448288917541504 0.474475681781768799 190 153 112 255 1
7.75597715377807617 2.18167495727539062 0.0557459928095340729 190 153 112 255 1
7.82737827301025391 2.20475459098815918 0.0584459006786346436 190 153 112 255 1
8.06976127624511719 2.28149294853210449 0.450317531824111938 190 153 112 255 1
8.03661918640136719 2.24956274032592773 0.437310665845870972 190 153 112 255 1
8.05882549285888672 2.26292896270751953 0.455173254013061523 190 153 112 255 1
8.00086021423339844 2.2435154914855957 0.402485877275466919 190 153 112 255 1
8.05084800720214844 2.26234817504882812 0.398806005716323853 190 153 112 255 1
8.1359405517578125 2.32221126556396484 0.460811048746109009 190 153 112 255 1
7.71328639984130859 2.14809417724609375 0.161472424864768982 190 153 112 255 1
7.69554615020751953 2.15389347076416016 0.105953477323055267 190 153 112 255 1
7.69145011901855469 2.13892388343811035 0.159028768539428711 190 153 112 255 1
7.81223964691162109 2.16510629653930664 0.332265496253967285 190 153 112 255 1
7.81141281127929688 2.16488885879516602 0.36260831356048584 190 153 112 255 1
7.9776453971862793 2.21608138084411621 0.585693240165710449 190 153 112 255 1
8.029449462890625 2.23467826843261719 0.626359641551971436 190 153 112 255 1
7.63932514190673828 2.13090896606445312 0.701321721076965332 190 153 112 255 1
7.65218591690063477 2.16589856147766113 0.682383477687835693 190 153 112 255 1
7.65080547332763672 2.16916108131408691 0.715536057949066162 190 153 112 255 1
7.64551591873168945 2.09414768218994141 0.660840988159179688 190 153 112 255 1
7.67495346069335938 2.11391472816467285 0.64569389820098877 190 153 112 255 1
7.82628917694091797 2.08384323120117188 1.20875465869903564 190 153 112 255 1
7.86055707931518555 2.09670877456665039 1.1928861141204834 190 153 112 255 1
7.88880634307861328 2.11069679260253906 1.20790219306945801 190 153 112 255 1
7.86788558959960938 2.11284494400024414 1.24604701995849609 190 153 112 255 1
7.75478315353393555 2.11213874816894531 0.743749797344207764 190 153 112 255 1
7.70680093765258789 2.08309841156005859 0.744600296020507812 190 153 112 255 1
8.36981296539306641 2.33525276184082031 0.846809625625610352 190 153 112 255 1
8.37950229644775391 2.34488368034362793 0.832652688026428223 190 153 112 255 1
8.38568592071533203 2.35828518867492676 0.886406600475311279 190 153 112 255 1
8.38138198852539062 2.35813450813293457 0.79013824462890625 190 153 112 255 1
8.35463905334472656 2.33004641532897949 0.815711081027984619 190 153 112 255 1
8.38300704956054688 2.34561562538146973 0.892496883869171143 190 153 112 255 1
8.09739208221435547 2.25404906272888184 0.664531409740447998 190 153 112 255 1
8.14431285858154297 2.27530074119567871 0.663803994655609131 190 153 112 255 1
8.13819122314453125 2.27764749526977539 0.628142654895782471 190 153 112 255 1
8.11127853393554688 2.21987199783325195 1.03988897800445557 190 153 112 255 1
8.10747814178466797 2.22246193885803223 1.09206461906433105 190 153 112 255 1
8.18907642364501953 2.29587340354919434 0.633605718612670898 190 153 112 255 1
8.16805362701416016 2.27675151824951172 0.704323530197143555 190 153 112 255 1
8.23576831817626953 2.30967020988464355 0.684808909893035889 190 153 112 255 1
7.78828907012939453 2.09463787078857422 0.838160455226898193 190 153 112 255 1
7.76088619232177734 2.0898139476776123 0.806885123252868652 190 153 112 255 1
7.81604480743408203 2.11542868614196777 0.788858234882354736 190 153 112 255 1
7.81849527359008789 2.10953021049499512 0.824692428112030029 190 153 112 255 1
7.51427364349365234 1.95391249656677246 1.21093070507049561 190 153 112 255 1
7.94392776489257812 2.15433597564697266 0.94618380069732666 190 153 112 255 1
7.9506678581237793 2.15514779090881348 1.03254008293151855 190 153 112 255 1
7.93390512466430664 2.14105534553527832 1.25376248359680176 190 153 112 255 1
7.9634556770324707 2.15069079399108887 1.20809364318847656 190 153 112 255 1
7.90237760543823242 2.12372565269470215 1.17469525337219238 190 153 112 255 1
7.864044189453125 2.10555696487426758 1.14865291118621826 190 153 112 255 1
7.8911128044128418 2.12056255340576172 1.12776815891265869 190 153 112 255 1
7.75593471527099609 2.09955692291259766 0.756065607070922852 190 153 112 255 1
7.80610275268554688 2.12533903121948242 0.744155585765838623 190 153 112 255 1
7.77596092224121094 2.13783431053161621 0.727077960968017578 190 153 112 255 1
7.84409379959106445 2.14562869071960449 0.719725966453552246 190 153 112 255 1
7.50253105163574219 2.01601505279541016 0.686179101467132568 190 153 112 255 1
7.48201131820678711 2.00574064254760742 0.699456334114074707 190 153 112 255 1
7.9555058479309082 2.16468095779418945 0.908192932605743408 190 153 112 255 1
7.88479471206665039 2.16620969772338867 0.720803201198577881 190 153 112 255 1
7.90955781936645508 2.17431783676147461 0.691949367523193359 190 153 112 255 1
7.87575626373291016 2.16726517677307129 0.645936489105224609 190 153 112 255 1
7.6483769416809082 2.08745241165161133 0.605953097343444824 190 153 112 255 1
7.69951534271240234 2.10196685791015625 0.605778515338897705 190 153 112 255 1
7.70557832717895508 2.09984230995178223 0.546184957027435303 190 153 112 255 1
7.74051380157470703 2.11397910118103027 0.541533827781677246 190 153 112 255 1
7.67400646209716797 2.09516286849975586 0.629997193813323975 190 153 112 255 1
7.69958734512329102 2.1016082763671875 0.579530179500579834 190 153 112 255 1
7.73785781860351562 2.12471175193786621 0.620708703994750977 190 153 112 255 1
7.63763809204101562 2.02144455909729004 1.00008761882781982 190 153 112 255 1
7.68181228637695312 2.04750442504882812 0.944325685501098633 190 153 112 255 1
7.51978540420532227 2.02260947227478027 0.651622474193572998 190 153 112 255 1
7.58754968643188477 2.04742550849914551 0.697559058666229248 190 153 112 255 1
7.5346379280090332 2.03344130516052246 0.626001596450805664 190 153 112 255 1
7.53021049499511719 2.0267949104309082 0.6956825852394104 190 153 112 255 1
7.56551122665405273 2.03303146362304688 0.715144574642181396 190 153 112 255 1
8.16324996948242188 2.24730324745178223 0.882777571678161621 190 153 112 255 1
8.28535842895507812 2.3417201042175293 0.569623410701751709 190 153 112 255 1
8.0704193115234375 2.20857119560241699 0.882829189300537109 190 153 112 255 1
8.10709095001220703 2.22692298889160156 0.864225268363952637 190 153 112 255 1
7.70913457870483398 2.12851929664611816 0.635870754718780518 190 153 112 255 1
7.58813142776489258 1.98284900188446045 1.1894524097442627 190 153 112 255 1
8.02858161926269531 2.20815324783325195 0.758578956127166748 190 153 112 255 1
8.04761028289794922 2.23062729835510254 0.715774834156036377 190 153 112 255 1
8.07001590728759766 2.22422599792480469 0.755911529064178467 190 153 112 255 1
8.08722114562988281 2.2242734432220459 0.7870139479637146 190 153 112 255 1
8.26304340362548828 2.32811212539672852 0.638423025608062744 190 153 112 255 1
7.62822961807250977 2.08080840110778809 0.708544075489044189 190 153 112 255 1
7.63282632827758789 2.07043194770812988 0.663395524024963379 190 153 112 255 1
7.60715103149414062 2.05552339553833008 0.676321327686309814 190 153 112 255 1
7.64078569412231445 2.07606291770935059 0.63555443286895752 190 153 112 255 1
7.58862590789794922 2.00618767738342285 0.985679507255554199 190 153 112 255 1
7.537689208984375 1.99148046970367432 0.949911296367645264 190 153 112 255 1
7.82405376434326172 2.0853111743927002 1.16833961009979248 190 153 112 255 1
7.77894496917724609 2.06417512893676758 1.154541015625 190 153 112 255 1
8.3426666259765625 2.31885266304016113 1.46230828762054443 190 153 112 255 1
8.3476104736328125 2.32473993301391602 1.42122197151184082 190 153 112 255 1
8.39324569702148438 2.3365471363067627 1.45938026905059814 190 153 112 255 1
7.94486904144287109 2.15682697296142578 0.980647444725036621 190 153 112 255 1
8.27362632751464844 2.2309577465057373 1.48332691192626953 190 153 112 255 1
8.27185535430908203 2.23107242584228516 1.45228111743927002 190 153 112 255 1
8.25583076477050781 2.21905779838562012 1.44797682762145996 190 153 112 255 1
8.27588081359863281 2.20810222625732422 1.45824170112609863 190 153 112 255 1
8.24594020843505859 2.22603535652160645 1.49094438552856445 190 153 112 255 1
8.26130580902099609 2.21299624443054199 1.47499072551727295 190 153 112 255 1
7.93115329742431641 2.15665864944458008 0.801659762859344482 190 153 112 255 1
7.83453845977783203 2.11476659774780273 0.858088374137878418 190 153 112 255 1
7.89887380599975586 2.1426849365234375 0.861300528049468994 190 153 112 255 1
7.8864288330078125 2.1383051872253418 0.80335390567779541 190 153 112 255 1
7.68425083160400391 2.03055381774902344 1.10657322406768799 190 153 112 255 1
7.72357082366943359 2.05417227745056152 1.06622231006622314 190 153 112 255 1
7.73467111587524414 2.0535428524017334 1.11076569557189941 190 153 112 255 1
8.40546321868896484 2.34843349456787109 1.37014639377593994 190 153 112 255 1
8.40618801116943359 2.34467124938964844 1.42815542221069336 190 153 112 255 1
7.82836341857910156 2.1518852710723877 0.631850004196166992 190 153 112 255 1
7.85421848297119141 2.1522977352142334 0.695532441139221191 190 153 112 255 1
8.39920806884765625 2.34412360191345215 1.33168387413024902 190 153 112 255 1
7.63339900970458984 2.07620739936828613 0.567313909530639648 190 153 112 255 1
7.60641860961914062 2.06827330589294434 0.609609544277191162 190 153 112 255 1
7.57991409301757812 2.05175685882568359 0.643202722072601318 190 153 112 255 1
8.39055252075195312 2.33080196380615234 1.09955084323883057 190 153 112 255 1
8.34823417663574219 2.31192183494567871 1.10529220104217529 190 153 112 255 1
8.38556385040283203 2.33105063438415527 1.06571817398071289 190 153 112 255 1
7.65676021575927734 2.09250473976135254 0.733479917049407959 190 153 112 255 1
7.66367435455322266 2.1427767276763916 0.728686153888702393 190 153 112 255 1
7.7095942497253418 2.15808010101318359 0.733980000019073486 190 153 112 255 1
7.68837070465087891 2.19530057907104492 0.718663990497589111 190 153 112 255 1
7.73700952529907227 2.15752625465393066 0.72704315185546875 190 153 112 255 1
7.50118541717529297 1.99019813537597656 0.836149215698242188 190 153 112 255 1
7.5553736686706543 2.00991177558898926 0.859796822071075439 190 153 112 255 1
7.53545093536376953 2.0016930103302002 0.80964428186416626 190 153 112 255 1
7.54162931442260742 1.99610757827758789 0.879795491695404053 190 153 112 255 1
7.576751708984375 2.01860523223876953 0.801149487495422363 190 153 112 255 1
7.96124172210693359 2.17000389099121094 0.817958414554595947 190 153 112 255 1
7.98858118057250977 2.17890357971191406 0.865285098552703857 190 153 112 255 1
8.15913963317871094 2.23802065849304199 1.02052223682403564 190 153 112 255 1
8.22265911102294922 2.26908111572265625 0.924275577068328857 190 153 112 255 1
8.28821182250976562 2.29062628746032715 0.987745225429534912 190 153 112 255 1
8.30804061889648438 2.29900598526000977 0.965624690055847168 190 153 112 255 1
7.58140850067138672 2.0094764232635498 0.890525460243225098 190 153 112 255 1
8.01701927185058594 2.19336032867431641 0.786722123622894287 190 153 112 255 1
8.00477790832519531 2.18756222724914551 0.830661654472351074 190 153 112 255 1
8.06727504730224609 2.21265363693237305 0.815186738967895508 190 153 112 255 1
8.05882644653320312 2.20777249336242676 0.85665053129196167 190 153 112 255 1
8.38688564300537109 2.3348076343536377 0.973338186740875244 190 153 112 255 1
8.37386417388916016 2.33341193199157715 0.916414082050323486 190 153 112 255 1
8.35947132110595703 2.32121181488037109 0.950686037540435791 190 153 112 255 1
8.33111953735351562 2.31550216674804688 0.909341514110565186 190 153 112 255 1
8.10858249664306641 2.26164579391479492 0.644504010677337646 190 153 112 255 1
8.10514354705810547 2.26536750793457031 0.58452761173248291 190 153 112 255 1
7.65763282775878906 2.03341555595397949 1.0549623966217041 190 153 112 255 1
7.64221525192260742 2.16700053215026855 0.696919381618499756 190 153 112 255 1
7.66501045227050781 2.19376969337463379 0.697601020336151123 190 153 112 255 1
7.60428237915039062 2.04724240303039551 0.74052053689956665 190 153 112 255 1
7.54977607727050781 2.02076363563537598 0.752912163734436035 190 153 112 255 1
7.54868173599243164 1.98965907096862793 0.994704902172088623 190 153 112 255 1
7.59379434585571289 2.00681805610656738 1.02766263484954834 190 153 112 255 1
8.25759220123291016 2.22201323509216309 1.41550326347351074 190 153 112 255 1
8.23737716674804688 2.22082376480102539 1.39931464195251465 190 153 112 255 1
8.26683712005615234 2.21940088272094727 1.37976884841918945 190 153 112 255 1
8.23876380920410156 2.23286080360412598 1.43247413635253906 190 153 112 255 1
8.22756099700927734 2.2265007495880127 1.42406976222991943 190 153 112 255 1
8.03176021575927734 2.18480610847473145 1.20459461212158203 190 153 112 255 1
8.02975940704345703 2.19396352767944336 1.24494421482086182 190 153 112 255 1
8.25346088409423828 2.2858588695526123 0.878632068634033203 190 153 112 255 1
7.78627967834472656 2.06292057037353516 1.1988300085067749 190 153 112 255 1
8.24786853790283203 2.32665395736694336 0.571402907371520996 190 153 112 255 1
8.26294422149658203 2.33294224739074707 0.595432639122009277 190 153 112 255 1
8.30441379547119141 2.35359740257263184 0.616112112998962402 190 153 112 255 1
7.96709012985229492 2.15735459327697754 1.15824329853057861 190 153 112 255 1
7.95842504501342773 2.1464533805847168 1.18872976303100586 190 153 112 255 1
7.75872802734375 2.07097983360290527 1.03781449794769287 190 153 112 255 1
7.81890201568603516 2.09484505653381348 1.0458064079284668 190 153 112 255 1
7.50129890441894531 1.98325777053833008 0.869597315788269043 190 153 112 255 1
7.77548789978027344 2.06619453430175781 1.24855458736419678 190 153 112 255 1
8.26300811767578125 2.31152749061584473 0.707148373126983643 190 153 112 255 1
8.26256656646728516 2.30527567863464355 0.752557039260864258 190 153 112 255 1
8.27966022491455078 2.30095529556274414 0.778981328010559082 190 153 112 255 1
8.13812732696533203 2.23686552047729492 0.972215533256530762 190 153 112 255 1
8.23703193664550781 2.22876238822937012 1.45822882652282715 190 153 112 255 1
8.28639698028564453 2.2491614818572998 1.46560871601104736 190 153 112 255 1
8.308929443359375 2.26319432258605957 1.47085154056549072 190 153 112 255 1
8.27369594573974609 2.2404639720916748 1.42272686958312988 190 153 112 255 1
7.80712461471557617 2.14978289604187012 0.641463637351989746 190 153 112 255 1
7.82320022583007812 2.14618968963623047 0.700019478797912598 190 153 112 255 1
8.39084053039550781 2.33550524711608887 1.21806228160858154 190 153 112 255 1
8.36442470550537109 2.32218027114868164 1.13477218151092529 190 153 112 255 1
8.38591194152832031 2.33409667015075684 1.12852978706359863 190 153 112 255 1
7.94357633590698242 2.19800543785095215 0.617894768714904785 190 153 112 255 1
7.94991540908813477 2.21221518516540527 0.547339975833892822 190 153 112 255 1
8.32397174835205078 2.36151337623596191 0.539258301258087158 190 153 112 255 1
8.33390426635742188 2.36434221267700195 0.600529253482818604 190 153 112 255 1
8.33587360382080078 2.36487627029418945 0.628729879856109619 190 153 112 255 1
7.98606109619140625 2.18411636352539062 0.782797515392303467 190 153 112 255 1
7.95036983489990234 2.17782998085021973 0.749029636383056641 190 153 112 255 1
7.91663503646850586 2.16642856597900391 0.755542159080505371 190 153 112 255 1
7.99345207214355469 2.19864201545715332 0.747081995010375977 190 153 112 255 1
7.91384601593017578 2.13019752502441406 1.11867117881774902 190 153 112 255 1
7.92444896697998047 2.13192176818847656 1.15353405475616455 190 153 112 255 1
8.30859851837158203 2.26473164558410645 1.41418826580047607 190 153 112 255 1
7.65826606750488281 2.06772303581237793 0.741939783096313477 190 153 112 255 1
7.63895416259765625 2.05229496955871582 0.754098892211914062 190 153 112 255 1
7.83207416534423828 2.09791016578674316 1.07986545562744141 190 153 112 255 1
7.87495088577270508 2.1148073673248291 1.06867468357086182 190 153 112 255 1
8.23131847381591797 2.27719759941101074 0.84224236011505127 190 153 112 255 1
8.21247768402099609 2.27014684677124023 0.889738559722900391 190 153 112 255 1
8.09777164459228516 2.21786093711853027 1.17020618915557861 190 153 112 255 1
8.13031864166259766 2.23312473297119141 1.20024013519287109 190 153 112 255 1
8.07586765289306641 2.21558523178100586 1.23416674137115479 190 153 112 255 1
8.08941268920898438 2.21623897552490234 1.20313024520874023 190 153 112 255 1
8.11277484893798828 2.23516631126403809 1.2369990348815918 190 153 112 255 1
7.70791864395141602 2.03362393379211426 1.18242621421813965 190 153 112 255 1
7.7108607292175293 2.03028416633605957 1.21153557300567627 190 153 112 255 1
7.72461891174316406 2.0398712158203125 1.14377999305725098 190 153 112 255 1
7.67567873001098633 2.03791260719299316 1.00642049312591553 190 153 112 255 1
7.67824792861938477 2.04002666473388672 1.02810335159301758 190 153 112 255 1
7.71948480606079102 2.06242752075195312 0.956792950630187988 190 153 112 255 1
7.74757194519042969 2.06797122955322266 0.99992138147354126 190 153 112 255 1
8.20725631713867188 2.25887393951416016 0.984012067317962646 190 153 112 255 1
8.26041412353515625 2.28495192527770996 0.957829654216766357 190 153 112 255 1
8.12709522247314453 2.22994518280029297 0.933266341686248779 190 153 112 255 1
8.18321990966796875 2.25247383117675781 0.960895121097564697 190 153 112 255 1
8.21918106079101562 2.26343727111816406 1.06609034538269043 190 153 112 255 1
8.18755912780761719 2.25420331954956055 1.11032414436340332 190 153 112 255 1
8.15757656097412109 2.25221538543701172 1.25395381450653076 190 153 112 255 1
8.20438575744628906 2.27317285537719727 1.24954283237457275 190 153 112 255 1
8.23567676544189453 2.28405523300170898 1.23318076133728027 190 153 112 255 1
8.17591190338134766 2.25909566879272461 1.22458302974700928 190 153 112 255 1
8.161346435546875 2.24190545082092285 1.07350146770477295 190 153 112 255 1
7.79264116287231445 2.08743166923522949 1.00492656230926514 190 153 112 255 1
7.83070611953735352 2.1068565845489502 0.956967651844024658 190 153 112 255 1
7.52270364761352539 1.97941839694976807 1.0305246114730835 190 153 112 255 1
8.29128742218017578 2.29646921157836914 0.931102871894836426 190 153 112 255 1
8.31178474426269531 2.30791044235229492 0.883047342300415039 190 153 112 255 1
8.05360031127929688 2.1978752613067627 1.13325726985931396 190 153 112 255 1
8.0031280517578125 2.17138171195983887 1.16155016422271729 190 153 112 255 1
8.06309223175048828 2.20258092880249023 1.16904366016387939 190 153 112 255 1
7.7383885383605957 2.07611393928527832 0.84745323657989502 190 153 112 255 1
7.67245101928710938 2.05352544784545898 0.800281524658203125 190 153 112 255 1
7.72776269912719727 2.07537674903869629 0.795149147510528564 190 153 112 255 1
7.67625093460083008 2.05366611480712891 0.846115410327911377 190 153 112 255 1
7.62542152404785156 2.00057387351989746 1.15409791469573975 190 153 112 255 1
7.66092061996459961 2.01430773735046387 1.14869451522827148 190 153 112 255 1
7.64505815505981445 2.01056861877441406 1.10745358467102051 190 153 112 255 1
8.28734970092773438 2.3289787769317627 0.685086309909820557 190 153 112 255 1
8.35243034362792969 2.36023974418640137 0.671536505222320557 190 153 112 255 1
8.36979007720947266 2.36246681213378906 0.735440075397491455 190 153 112 255 1
7.85432529449462891 2.15756726264953613 0.611271083354949951 190 153 112 255 1
7.75827121734619141 2.12442159652709961 0.571348845958709717 190 153 112 255 1
7.79359579086303711 2.13870024681091309 0.592198014259338379 190 153 112 255 1
7.78227329254150391 2.13671731948852539 0.611112415790557861 190 153 112 255 1
7.76198911666870117 2.15070080757141113 0.638016641139984131 190 153 112 255 1
7.9177851676940918 2.14623856544494629 0.919540107250213623 190 153 112 255 1
7.86411142349243164 2.12498617172241211 0.918710052967071533 190 153 112 255 1
7.89452457427978516 2.1334528923034668 0.951705694198608398 190 153 112 255 1
8.39673995971679688 2.34659600257873535 0.980100691318511963 190 153 112 255 1
8.36868762969970703 2.32420086860656738 0.986124396324157715 190 153 112 255 1
8.38159275054931641 2.32605814933776855 1.03361952304840088 190 153 112 255 1
7.70863056182861328 2.06255197525024414 0.885696768760681152 190 153 112 255 1
7.57030487060546875 1.99680495262145996 1.06285548210144043 190 153 112 255 1
7.60879802703857422 2.00950098037719727 1.06868016719818115 190 153 112 255 1
8.39955520629882812 2.34505987167358398 1.25347387790679932 190 153 112 255 1
8.03941535949707031 2.22716784477233887 0.672104895114898682 190 153 112 255 1
8.01302909851074219 2.21461105346679688 0.707342684268951416 190 153 112 255 1
8.40045356750488281 2.34424352645874023 1.19373679161071777 190 153 112 255 1
8.39770984649658203 2.34584522247314453 1.12167251110076904 190 153 112 255 1
8.12497901916503906 2.26152658462524414 0.706763327121734619 190 153 112 255 1
8.11392498016357422 2.24869513511657715 0.728136658668518066 190 153 112 255 1
8.12095928192138672 2.24327778816223145 0.769417703151702881 190 153 112 255 1
7.69333028793334961 2.07111668586730957 0.756775200366973877 190 153 112 255 1
7.6356043815612793 2.03903532028198242 0.800671935081481934 190 153 112 255 1
7.636138916015625 2.03953456878662109 0.838569045066833496 190 153 112 255 1
7.60301303863525391 2.02603721618652344 0.860627472400665283 190 153 112 255 1
8.21119880676269531 2.31040287017822266 0.55385124683380127 190 153 112 255 1
8.15660953521728516 2.28504276275634766 0.59109264612197876 190 153 112 255 1
8.22293758392333984 2.3106989860534668 0.625111877918243408 190 153 112 255 1
8.2144927978515625 2.3124244213104248 0.595619320869445801 190 153 112 255 1
7.54364871978759766 1.970131516456604 1.148651123046875 190 153 112 255 1
7.52268791198730469 1.95660793781280518 1.17276418209075928 190 153 112 255 1
7.57491254806518555 1.98364698886871338 1.10417914390563965 190 153 112 255 1
7.85368156433105469 2.13939881324768066 0.762223780155181885 190 153 112 255 1
7.88054466247558594 2.15001416206359863 0.756901264190673828 190 153 112 255 1
7.84537601470947266 2.1227576732635498 0.795861780643463135 190 153 112 255 1
8.20392417907714844 2.28450679779052734 0.729885399341583252 190 153 112 255 1
8.23201560974121094 2.29942774772644043 0.726724982261657715 190 153 112 255 1
8.21124839782714844 2.27883553504943848 0.764064013957977295 190 153 112 255 1
8.15660285949707031 2.25165367126464844 0.780552327632904053 190 153 112 255 1
8.21397781372070312 2.27335190773010254 0.781937122344970703 190 153 112 255 1
8.30559635162353516 2.31030988693237305 1.22894167900085449 190 153 112 255 1
8.37227916717529297 2.32650518417358398 1.19100427627563477 190 153 112 255 1
8.33668231964111328 2.32452893257141113 1.25910377502441406 190 153 112 255 1
8.30396080017089844 2.26720452308654785 1.34727978706359863 190 153 112 255 1
8.337921142578125 2.31318283081054688 1.16735672950744629 190 153 112 255 1
8.32688713073730469 2.30961060523986816 1.20105111598968506 190 153 112 255 1
8.24876022338867188 2.27531766891479492 1.11383581161499023 190 153 112 255 1
8.25826644897460938 2.27944374084472656 1.06956601142883301 190 153 112 255 1
8.00754833221435547 2.18094801902770996 0.938898861408233643 190 153 112 255 1
8.04265880584716797 2.19833636283874512 0.907445371150970459 190 153 112 255 1
8.274139404296875 2.29670381546020508 1.25315678119659424 190 153 112 255 1
8.01405811309814453 2.23325681686401367 0.547618627548217773 190 153 112 255 1
7.98719215393066406 2.1712806224822998 1.24044811725616455 190 153 112 255 1
8.3836822509765625 2.33548831939697266 1.31528007984161377 190 153 112 255 1
8.34445667266845703 2.32555961608886719 1.30694139003753662 190 153 112 255 1
7.87342166900634766 2.12266445159912109 0.9667244553565979 190 153 112 255 1
7.84419155120849609 2.10963034629821777 1.03189611434936523 190 153 112 255 1
8.21957111358642578 2.26646280288696289 1.19791066646575928 190 153 112 255 1
8.19557476043701172 2.25520968437194824 1.14152538776397705 190 153 112 255 1
8.17130184173583984 2.25189018249511719 1.19878244400024414 190 153 112 255 1
8.27172470092773438 2.28752350807189941 1.19307577610015869 190 153 112 255 1
7.8773961067199707 2.16770267486572266 0.597447693347930908 190 153 112 255 1
7.89832019805908203 2.18065738677978516 0.573308229446411133 190 153 112 255 1
7.84925413131713867 2.16534924507141113 0.553252637386322021 190 153 112 255 1
8.34206295013427734 2.3105461597442627 1.02329480648040771 190 153 112 255 1
8.30554485321044922 2.2948300838470459 1.05873429775238037 190 153 112 255 1
8.31828498840332031 2.30736374855041504 1.30832231044769287 190 153 112 255 1
8.31268024444580078 2.30032682418823242 1.35258185863494873 190 153 112 255 1
8.04275894165039062 2.19251823425292969 1.05711507797241211 190 153 112 255 1
8.01669025421142578 2.17995810508728027 1.1067279577255249 190 153 112 255 1
8.00539684295654297 2.17865276336669922 1.05872213840484619 190 153 112 255 1
8.05218410491943359 2.19459295272827148 1.09684467315673828 190 153 112 255 1
8.39123344421386719 2.33256387710571289 1.41788053512573242 190 153 112 255 1
7.98143339157104492 2.15993404388427734 1.10834670066833496 190 153 112 255 1
8.28244304656982422 2.29045534133911133 1.1316903829574585 190 153 112 255 1
8.28696823120117188 2.29104399681091309 1.16698968410491943 190 153 112 255 1
8.31592750549316406 2.29806208610534668 1.40491592884063721 190 153 112 255 1
8.33167362213134766 2.3197333812713623 1.35834395885467529 190 153 112 255 1
8.32614803314208984 2.30858612060546875 1.43920660018920898 190 153 112 255 1
7.82010555267333984 2.08568358421325684 1.25972068309783936 190 153 112 255 1
7.80371809005737305 2.07834506034851074 1.23853540420532227 190 153 112 255 1
7.78108501434326172 2.07042980194091797 1.11611545085906982 190 153 112 255 1
7.77378082275390625 2.06931400299072266 1.0869901180267334 190 153 112 255 1
7.79661893844604492 2.15137481689453125 0.700237751007080078 190 153 112 255 1
7.79019498825073242 2.15716385841369629 0.669824659824371338 190 153 112 255 1
7.7428431510925293 2.07141971588134766 0.927003324031829834 190 153 112 255 1
7.7664036750793457 2.08574366569519043 0.8934670090675354 190 153 112 255 1
7.7974238395690918 2.09471511840820312 0.940063953399658203 190 153 112 255 1
7.63026285171508789 2.02951931953430176 0.878866016864776611 190 153 112 255 1
7.6696929931640625 2.04634499549865723 0.873736143112182617 190 153 112 255 1
7.62845277786254883 2.02742981910705566 0.932655513286590576 190 153 112 255 1
8.30916690826416016 2.31428170204162598 0.771756649017333984 190 153 112 255 1
8.04871845245361328 2.19908237457275391 0.970260083675384521 190 153 112 255 1
7.99091958999633789 2.17368412017822266 0.977666735649108887 190 153 112 255 1
8.07304763793945312 2.20551896095275879 1.01276504993438721 190 153 112 255 1
7.91501903533935547 2.14090919494628906 1.03108930587768555 190 153 112 255 1
7.9423375129699707 2.14423680305480957 1.09859907627105713 190 153 112 255 1
8.31573963165283203 2.29093670845031738 1.46018731594085693 190 153 112 255 1
8.32625770568847656 2.31112194061279297 1.49414348602294922 190 153 112 255 1
7.74719524383544922 2.17144680023193359 0.704094588756561279 190 153 112 255 1
7.68854331970214844 2.20138740539550781 0.694731771945953369 190 153 112 255 1
7.72897243499755859 2.17920970916748047 0.674746513366699219 190 153 112 255 1
7.71948719024658203 2.16678905487060547 0.659792065620422363 190 153 112 255 1
7.67887067794799805 2.17245841026306152 0.67174220085144043 190 153 112 255 1
8.0594329833984375 2.25076866149902344 0.581629514694213867 190 153 112 255 1
8.01590347290039062 2.22919535636901855 0.573573768138885498 190 153 112 255 1
8.15751457214355469 2.2453162670135498 1.16748416423797607 190 153 112 255 1
8.14504146575927734 2.23297405242919922 1.12838435173034668 190 153 112 255 1
8.09080791473388672 2.21213817596435547 1.13854813575744629 190 153 112 255 1
7.92321681976318359 2.18940472602844238 0.64333796501159668 190 153 112 255 1
7.95937919616699219 2.19683265686035156 0.681623697280883789 190 153 112 255 1
7.92040348052978516 2.17823576927185059 0.724555611610412598 190 153 112 255 1
7.95693159103393555 2.19573140144348145 0.716890037059783936 190 153 112 255 1
7.9885869026184082 2.21211075782775879 0.658082783222198486 190 153 112 255 1
8.31822299957275391 2.33097934722900391 0.727596163749694824 190 153 112 255 1
8.32797431945800781 2.33085966110229492 0.754037439823150635 190 153 112 255 1
8.35322284698486328 2.35136103630065918 0.701223254203796387 190 153 112 255 1
8.37278270721435547 2.34256172180175781 0.779878854751586914 190 153 112 255 1
8.36285495758056641 2.34738016128540039 0.752654671669006348 190 153 112 255 1
8.15065574645996094 2.24713230133056641 0.812606513500213623 190 153 112 255 1
8.38336658477783203 2.3416285514831543 1.5943293571472168 190 153 112 255 1
8.33290290832519531 2.31007504463195801 1.62391483783721924 190 153 112 255 1
8.37933921813964844 2.3413994312286377 1.64406156539916992 190 153 112 255 1
