ply
format ascii 1.0
element vertex 607
property float x
property float y
property float z
property uchar red
property uchar green
property uchar blue
property uchar alpha
property uint label
end_header
8.04325389862060547 3.31064605712890625 1.55457437038421631 190 153 112 255 1
8.05233573913574219 3.28864502906799316 1.53925347328186035 190 153 112 255 1
8.03991889953613281 3.32234096527099609 1.60858523845672607 190 153 112 255 1
8.05350208282470703 3.34685778617858887 1.58459675312042236 190 153 112 255 1
8.25060653686523438 2.73361539840698242 1.76907253265380859 190 153 112 255 1
8.21941280364990234 2.80498456954956055 1.79715502262115479 190 153 112 255 1
8.04963016510009766 3.27120399475097656 1.72033929824829102 190 153 112 255 1
8.02833366394042969 3.2997286319732666 1.70143628120422363 190 153 112 255 1
8.02813434600830078 3.32310748100280762 1.7187657356262207 190 153 112 255 1
8.05640316009521484 3.34081315994262695 1.70544099807739258 190 153 112 255 1
8.03740882873535156 3.27013397216796875 1.74811935424804688 190 153 112 255 1
8.02271366119384766 3.32750725746154785 1.75577843189239502 190 153 112 255 1
8.05419063568115234 3.34159350395202637 1.73776769638061523 190 153 112 255 1
8.19038105010986328 3.03556394577026367 1.70047652721405029 190 153 112 255 1
8.1720428466796875 3.08711743354797363 1.7065274715423584 190 153 112 255 1
8.16850757598876953 3.03860187530517578 1.68484020233154297 190 153 112 255 1
8.23274707794189453 2.84494137763977051 1.6233365535736084 190 153 112 255 1
8.20931625366210938 2.75689554214477539 1.89031863212585449 190 153 112 255 1
8.23854351043701172 2.72876405715942383 1.85969042778015137 190 153 112 255 1
8.2142181396484375 2.77511906623840332 1.86335229873657227 190 153 112 255 1
8.25920391082763672 2.69089818000793457 1.79055988788604736 190 153 112 255 1
8.27075481414794922 2.68168497085571289 1.73568546772003174 190 153 112 255 1
8.25071907043457031 2.68489408493041992 1.82760179042816162 190 153 112 255 1
8.27921962738037109 2.64988374710083008 1.79029548168182373 190 153 112 255 1
8.24732208251953125 2.71545934677124023 1.81177663803100586 190 153 112 255 1
8.161712646484375 3.02025556564331055 1.66124355792999268 190 153 112 255 1
8.17136573791503906 3.02792644500732422 1.60283958911895752 190 153 112 255 1
8.20569324493408203 2.92974400520324707 1.62528598308563232 190 153 112 255 1
8.17686176300048828 2.99998903274536133 1.64359080791473389 190 153 112 255 1
8.17187213897705078 2.99322938919067383 1.67193984985351562 190 153 112 255 1
8.11804008483886719 3.16380047798156738 1.63236641883850098 190 153 112 255 1
8.13412666320800781 3.09852886199951172 1.65675842761993408 190 153 112 255 1
8.14641094207763672 3.08628082275390625 1.63757264614105225 190 153 112 255 1
8.16127586364746094 3.06583619117736816 1.60068428516387939 190 153 112 255 1
8.23622226715087891 2.69803333282470703 1.88086950778961182 190 153 112 255 1
8.22389411926269531 2.70408177375793457 1.9007648229598999 190 153 112 255 1
8.23754024505615234 2.81807160377502441 1.6517866849899292 190 153 112 255 1
8.18985652923583984 2.93654584884643555 1.73904204368591309 190 153 112 255 1
8.21281242370605469 2.95597338676452637 1.7509152889251709 190 153 112 255 1
8.20044517517089844 2.8865044116973877 1.75058948993682861 190 153 112 255 1
8.19880580902099609 2.91186857223510742 1.73121070861816406 190 153 112 255 1
8.18758392333984375 2.95269513130187988 1.69057416915893555 190 153 112 255 1
8.2017364501953125 2.89968752861022949 1.69791412353515625 190 153 112 255 1
7.93403530120849609 3.62189626693725586 1.35391438007354736 190 153 112 255 1
7.98607349395751953 3.64019036293029785 1.35414695739746094 190 153 112 255 1
7.95896577835083008 3.63524603843688965 1.35665619373321533 190 153 112 255 1
7.97225666046142578 3.5168766975402832 1.35625720024108887 190 153 112 255 1
8.03820610046386719 3.51101589202880859 1.36118924617767334 190 153 112 255 1
7.92009687423706055 3.59460711479187012 1.30455911159515381 190 153 112 255 1
7.948822021484375 3.60113954544067383 1.35679185390472412 190 153 112 255 1
8.02333354949951172 3.52585339546203613 1.35982537269592285 190 153 112 255 1
7.93964004516601562 3.60538697242736816 1.26730668544769287 190 153 112 255 1
7.98123502731323242 3.51762652397155762 1.26419174671173096 190 153 112 255 1
8.01704788208007812 3.5695197582244873 1.35815465450286865 190 153 112 255 1
7.98907089233398438 3.60517168045043945 1.35809445381164551 190 153 112 255 1
7.94677114486694336 3.54392194747924805 1.30116832256317139 190 153 112 255 1
7.95248746871948242 3.53263998031616211 1.31587398052215576 190 153 112 255 1
7.95780658721923828 3.56493067741394043 1.35633611679077148 190 153 112 255 1
7.96418380737304688 3.55562973022460938 1.26597881317138672 190 153 112 255 1
7.93878173828125 3.59130334854125977 1.34449338912963867 190 153 112 255 1
7.9323887825012207 3.5748894214630127 1.30402195453643799 190 153 112 255 1
8.01845359802246094 3.44835162162780762 1.20201051235198975 190 153 112 255 1
7.96168756484985352 3.33472037315368652 0.928610861301422119 190 153 112 255 1
7.96665000915527344 3.31867551803588867 0.886308133602142334 190 153 112 255 1
7.96163225173950195 3.34623312950134277 0.931184768676757812 190 153 112 255 1
8.06784439086914062 3.22833943367004395 0.907716214656829834 190 153 112 255 1
8.08063316345214844 3.22515034675598145 0.959307372570037842 190 153 112 255 1
8.06817245483398438 3.25459718704223633 0.928688108921051025 190 153 112 255 1
8.05525493621826172 3.27587294578552246 0.918114364147186279 190 153 112 255 1
7.96061325073242188 3.43761849403381348 0.949148476123809814 190 153 112 255 1
8.09781742095947266 3.22749233245849609 1.193045973777771 190 153 112 255 1
8.10768699645996094 3.19347095489501953 1.2121727466583252 190 153 112 255 1
8.06361198425292969 3.27165651321411133 0.978426635265350342 190 153 112 255 1
8.06646442413330078 3.2785334587097168 1.01811611652374268 190 153 112 255 1
8.037628173828125 3.37249994277954102 1.10249996185302734 190 153 112 255 1
8.00439357757568359 3.47044134140014648 1.1672663688659668 190 153 112 255 1
8.02904891967773438 3.41022348403930664 1.17393624782562256 190 153 112 255 1
8.03853893280029297 3.37050580978393555 1.13399338722229004 190 153 112 255 1
7.98827075958251953 3.49247026443481445 1.02367043495178223 190 153 112 255 1
8.06463527679443359 3.32394552230834961 1.21635115146636963 190 153 112 255 1
8.04459762573242188 3.37677860260009766 1.18451988697052002 190 153 112 255 1
8.00287532806396484 3.44830918312072754 1.02747154235839844 190 153 112 255 1
7.99611759185791016 3.45608663558959961 0.982102572917938232 190 153 112 255 1
7.9941558837890625 3.48735761642456055 1.11317169666290283 190 153 112 255 1
8.00483512878417969 3.44530868530273438 1.06065154075622559 190 153 112 255 1
8.00894355773925781 3.44403600692749023 1.10374999046325684 190 153 112 255 1
8.08678913116455078 3.21363210678100586 1.01975023746490479 190 153 112 255 1
8.05517292022705078 3.31466960906982422 1.05230593681335449 190 153 112 255 1
8.03280448913574219 3.36976957321166992 0.997919857501983643 190 153 112 255 1
8.01879215240478516 3.39573359489440918 0.972771942615509033 190 153 112 255 1
8.01844692230224609 3.36759042739868164 0.948140799999237061 190 153 112 255 1
7.97464561462402344 3.37819147109985352 0.925327956676483154 190 153 112 255 1
8.01677989959716797 3.40497207641601562 0.948578834533691406 190 153 112 255 1
7.95829582214355469 3.49343180656433105 0.962252259254455566 190 153 112 255 1
7.9687504768371582 3.46895432472229004 0.934489607810974121 190 153 112 255 1
7.98623561859130859 3.45158910751342773 0.964016139507293701 190 153 112 255 1
7.97793436050415039 3.50334310531616211 0.993220150470733643 190 153 112 255 1
8.09465599060058594 3.23049592971801758 1.14242875576019287 190 153 112 255 1
8.10020732879638672 3.19572305679321289 1.13676762580871582 190 153 112 255 1
8.02534961700439453 3.39232873916625977 1.04363834857940674 190 153 112 255 1
8.01009178161621094 3.42657184600830078 0.964812874794006348 190 153 112 255 1
7.99166297912597656 3.51162624359130859 1.23716282844543457 190 153 112 255 1
8.08330631256103516 3.26952266693115234 1.16400480270385742 190 153 112 255 1
8.11763763427734375 3.16281223297119141 1.10648572444915771 190 153 112 255 1
8.07027053833007812 3.30499982833862305 1.1799999475479126 190 153 112 255 1
8.06258583068847656 3.30216217041015625 1.10126352310180664 190 153 112 255 1
8.10056781768798828 3.20108866691589355 1.09000980854034424 190 153 112 255 1
8.07995986938476562 3.24619817733764648 1.04937505722045898 190 153 112 255 1
8.0390472412109375 3.31499314308166504 0.949118971824645996 190 153 112 255 1
8.01581478118896484 3.33778643608093262 0.944684147834777832 190 153 112 255 1
8.05464076995849609 3.2940824031829834 0.9608001708984375 190 153 112 255 1
8.02222156524658203 3.29641056060791016 0.917291045188903809 190 153 112 255 1
8.11959648132324219 3.15789294242858887 1.14309930801391602 190 153 112 255 1
8.10985851287841797 3.18686580657958984 1.18455171585083008 190 153 112 255 1
8.03628158569335938 3.3566889762878418 1.03081917762756348 190 153 112 255 1
7.96816253662109375 3.53247761726379395 0.958863556385040283 190 153 112 255 1
7.95779323577880859 3.57464170455932617 1.05725014209747314 190 153 112 255 1
7.95814800262451172 3.57296323776245117 1.0000995397567749 190 153 112 255 1
7.96802902221679688 3.53625941276550293 1.00624227523803711 190 153 112 255 1
7.98257970809936523 3.52341198921203613 1.16853117942810059 190 153 112 255 1
7.96589851379394531 3.56668758392333984 1.18926441669464111 190 153 112 255 1
7.96048593521118164 3.58205986022949219 1.16138577461242676 190 153 112 255 1
7.98441934585571289 3.50850820541381836 1.14853847026824951 190 153 112 255 1
7.98103618621826172 3.50873088836669922 1.0755925178527832 190 153 112 255 1
7.93044567108154297 3.63207483291625977 1.11124765872955322 190 153 112 255 1
7.93549060821533203 3.62482762336730957 1.06963300704956055 190 153 112 255 1
7.93144893646240234 3.6193382740020752 0.948552131652832031 190 153 112 255 1
7.93401002883911133 3.61985683441162109 1.01216411590576172 190 153 112 255 1
7.96038198471069336 3.5731663703918457 1.07372081279754639 190 153 112 255 1
7.97116422653198242 3.53361606597900391 1.05332100391387939 190 153 112 255 1
7.96617555618286133 3.55562806129455566 1.10742747783660889 190 153 112 255 1
7.96331405639648438 3.57350444793701172 1.22548854351043701 190 153 112 255 1
7.93854379653930664 3.61766767501831055 1.21248078346252441 190 153 112 255 1
7.93583154678344727 3.62359476089477539 1.17478668689727783 190 153 112 255 1
8.02453517913818359 3.07478618621826172 0.89158165454864502 190 153 112 255 1
8.14085197448730469 3.00363254547119141 0.903618037700653076 190 153 112 255 1
8.12137413024902344 3.02491188049316406 0.913011372089385986 190 153 112 255 1
7.97253179550170898 3.11837482452392578 0.854506611824035645 190 153 112 255 1
7.97961568832397461 3.11824941635131836 0.896074056625366211 190 153 112 255 1
8.04629898071289062 3.07114338874816895 0.92399674654006958 190 153 112 255 1
8.00059890747070312 3.10834097862243652 0.924068570137023926 190 153 112 255 1
8.05713272094726562 3.21175360679626465 0.907832145690917969 190 153 112 255 1
8.02068042755126953 3.11214113235473633 1.01757657527923584 190 153 112 255 1
8.05023384094238281 3.09203410148620605 1.01655781269073486 190 153 112 255 1
8.00852680206298828 3.10587644577026367 0.970668613910675049 190 153 112 255 1
8.04103946685791016 3.05071520805358887 0.858239591121673584 190 153 112 255 1
8.06536674499511719 3.03264093399047852 0.828989923000335693 190 153 112 255 1
8.00774192810058594 3.08460760116577148 0.832722961902618408 190 153 112 255 1
8.03559589385986328 3.07018733024597168 0.810060441493988037 190 153 112 255 1
7.99195528030395508 3.09325647354125977 0.822404742240905762 190 153 112 255 1
8.07467079162597656 3.03684329986572266 0.811561226844787598 190 153 112 255 1
7.99029350280761719 3.14577817916870117 0.9374847412109375 190 153 112 255 1
8.03195285797119141 3.1678471565246582 0.981851100921630859 190 153 112 255 1
8.05337333679199219 3.19149065017700195 0.963273763656616211 190 153 112 255 1
8.02806854248046875 3.15979290008544922 1.01428651809692383 190 153 112 255 1
8.01927471160888672 3.1470189094543457 1.02526235580444336 190 153 112 255 1
8.06444549560546875 3.12018966674804688 1.08544731140136719 190 153 112 255 1
8.04676437377929688 3.10557794570922852 1.07083022594451904 190 153 112 255 1
8.08230876922607422 3.20097661018371582 1.00235426425933838 190 153 112 255 1
8.07843494415283203 3.21003866195678711 0.963718950748443604 190 153 112 255 1
8.03568267822265625 3.17199516296386719 0.945442914962768555 190 153 112 255 1
7.99101066589355469 3.13042759895324707 0.964737772941589355 190 153 112 255 1
8.12434768676757812 3.05082106590270996 1.00393259525299072 190 153 112 255 1
8.10558223724365234 3.04369139671325684 0.951377749443054199 190 153 112 255 1
8.04650402069091797 3.07976126670837402 0.96630626916885376 190 153 112 255 1
8.05375480651855469 3.18080377578735352 1.01797175407409668 190 153 112 255 1
8.01976680755615234 3.13100075721740723 1.0426255464553833 190 153 112 255 1
8.03975200653076172 3.17047500610351562 1.06436324119567871 190 153 112 255 1
8.05323600769042969 3.1600654125213623 1.07880508899688721 190 153 112 255 1
8.03321933746337891 3.13368964195251465 1.06728744506835938 190 153 112 255 1
8.09499263763427734 3.18716812133789062 1.0635300874710083 190 153 112 255 1
8.09391975402832031 3.15894341468811035 1.0879436731338501 190 153 112 255 1
8.10515308380126953 3.17967557907104492 1.09057164192199707 190 153 112 255 1
8.09464359283447266 3.17980027198791504 1.07694065570831299 190 153 112 255 1
7.98462629318237305 3.13118481636047363 0.930106043815612793 190 153 112 255 1
8.13795375823974609 2.9777069091796875 0.831060886383056641 190 153 112 255 1
8.12711429595947266 2.99110627174377441 0.807224035263061523 190 153 112 255 1
8.12440967559814453 3.00501346588134766 0.867067396640777588 190 153 112 255 1
8.11388397216796875 3.02272343635559082 0.791532695293426514 190 153 112 255 1
8.11045551300048828 2.99939966201782227 0.830757737159729004 190 153 112 255 1
8.09103679656982422 3.06841063499450684 1.01148927211761475 190 153 112 255 1
8.06766414642333984 3.08873820304870605 1.0682532787322998 190 153 112 255 1
8.13747787475585938 3.04591846466064453 1.07114255428314209 190 153 112 255 1
8.11776447296142578 3.0729377269744873 1.09423589706420898 190 153 112 255 1
8.12325286865234375 3.11031389236450195 1.09949612617492676 190 153 112 255 1
8.14572525024414062 3.02135062217712402 0.985114812850952148 190 153 112 255 1
8.13143634796142578 3.03096485137939453 0.968144118785858154 190 153 112 255 1
8.29488372802734375 2.49361324310302734 1.94141542911529541 190 153 112 255 1
8.24170112609863281 2.39882564544677734 2.50540661811828613 190 153 112 255 1
8.33114242553710938 2.32085585594177246 1.96438252925872803 190 153 112 255 1
8.31521701812744141 2.28648972511291504 2.31063437461853027 190 153 112 255 1
8.31393337249755859 2.27755498886108398 2.22217392921447754 190 153 112 255 1
8.29705619812011719 2.49352025985717773 1.99182462692260742 190 153 112 255 1
8.31128501892089844 2.45169711112976074 2.0294954776763916 190 153 112 255 1
8.31365203857421875 2.45737361907958984 2.06743407249450684 190 153 112 255 1
8.31851482391357422 2.42218399047851562 2.4845893383026123 190 153 112 255 1
8.32090663909912109 2.45931243896484375 2.50343585014343262 190 153 112 255 1
8.3195343017578125 2.4588165283203125 2.52352094650268555 190 153 112 255 1
8.23836421966552734 2.41671895980834961 2.51599431037902832 190 153 112 255 1
8.30126571655273438 2.29451823234558105 2.10389208793640137 190 153 112 255 1
8.16826248168945312 2.37389516830444336 2.49307775497436523 190 153 112 255 1
8.23152828216552734 2.36679887771606445 2.48230433464050293 190 153 112 255 1
8.21723175048828125 2.36192703247070312 2.48190712928771973 190 153 112 255 1
8.18870258331298828 2.35769343376159668 2.47448945045471191 190 153 112 255 1
8.22210121154785156 2.39424300193786621 2.50361394882202148 190 153 112 255 1
8.18426132202148438 2.39018797874450684 2.51094961166381836 190 153 112 255 1
8.31619834899902344 2.43864822387695312 1.99358570575714111 190 153 112 255 1
8.27666378021240234 2.46274662017822266 2.55271673202514648 190 153 112 255 1
8.31894207000732422 2.48961782455444336 2.53003263473510742 190 153 112 255 1
8.30014133453369141 2.41273951530456543 2.49220848083496094 190 153 112 255 1
8.30197334289550781 2.43568134307861328 2.53141236305236816 190 153 112 255 1
8.28273963928222656 2.42260551452636719 2.5095527172088623 190 153 112 255 1
8.25696182250976562 2.42736458778381348 2.53876662254333496 190 153 112 255 1
8.2204132080078125 2.41377353668212891 2.52693581581115723 190 153 112 255 1
8.33701324462890625 2.36135649681091309 2.10812973976135254 190 153 112 255 1
8.34039497375488281 2.3297116756439209 2.1184990406036377 190 153 112 255 1
8.33221340179443359 2.38349342346191406 2.13489508628845215 190 153 112 255 1
8.32448387145996094 2.45914220809936523 2.46078753471374512 190 153 112 255 1
8.28025245666503906 2.33481144905090332 2.46332073211669922 190 153 112 255 1
8.29372215270996094 2.36597156524658203 2.48261547088623047 190 153 112 255 1
8.24498462677001953 2.32364487648010254 2.45554280281066895 190 153 112 255 1
8.32779216766357422 2.30894780158996582 2.10368895530700684 190 153 112 255 1
8.35301876068115234 2.3238680362701416 2.17308402061462402 190 153 112 255 1
8.33514785766601562 2.30292630195617676 2.15170907974243164 190 153 112 255 1
8.31576156616210938 2.50148558616638184 2.47351360321044922 190 153 112 255 1
8.31090831756591797 2.51236534118652344 2.51466512680053711 190 153 112 255 1
8.30132007598876953 2.52315688133239746 2.54079437255859375 190 153 112 255 1
8.29580974578857422 2.5414578914642334 2.48811697959899902 190 153 112 255 1
8.34405899047851562 2.33959412574768066 1.99053871631622314 190 153 112 255 1
8.30740261077880859 2.27631902694702148 2.1525728702545166 190 153 112 255 1
8.32791328430175781 2.2741093635559082 2.18036723136901855 190 153 112 255 1
8.34313774108886719 2.29814958572387695 2.20966458320617676 190 153 112 255 1
8.31796741485595703 2.27868390083312988 2.25426554679870605 190 153 112 255 1
8.34973526000976562 2.31167316436767578 2.2286677360534668 190 153 112 255 1
8.32653427124023438 2.29372596740722656 2.40391826629638672 190 153 112 255 1
8.31261634826660156 2.28154492378234863 2.28393030166625977 190 153 112 255 1
8.34197711944580078 2.38780927658081055 2.28898859024047852 190 153 112 255 1
8.35968875885009766 2.31969118118286133 2.32143306732177734 190 153 112 255 1
8.34327411651611328 2.29468059539794922 2.36821579933166504 190 153 112 255 1
8.34449291229248047 2.29916024208068848 2.33241891860961914 190 153 112 255 1
8.29164981842041016 2.52145171165466309 2.02770781517028809 190 153 112 255 1
8.33696460723876953 2.38842344284057617 2.16951298713684082 190 153 112 255 1
8.337432861328125 2.39101195335388184 2.1939997673034668 190 153 112 255 1
8.32111835479736328 2.46513032913208008 2.22979187965393066 190 153 112 255 1
8.32810688018798828 2.4613041877746582 2.30909180641174316 190 153 112 255 1
8.34669589996337891 2.38895654678344727 2.38864278793334961 190 153 112 255 1
8.32683467864990234 2.4637138843536377 2.35145354270935059 190 153 112 255 1
8.33899879455566406 2.39996576309204102 2.34578323364257812 190 153 112 255 1
8.30656719207763672 2.45970463752746582 1.93403375148773193 190 153 112 255 1
8.30959510803222656 2.29347133636474609 1.99968564510345459 190 153 112 255 1
8.31201076507568359 2.27555537223815918 2.03625011444091797 190 153 112 255 1
8.31022453308105469 2.29556989669799805 2.05207490921020508 190 153 112 255 1
8.33063602447509766 2.43504953384399414 2.24764132499694824 190 153 112 255 1
8.35336780548095703 2.36431360244750977 2.25037288665771484 190 153 112 255 1
8.35602951049804688 2.32056021690368652 2.28029489517211914 190 153 112 255 1
8.35908412933349609 2.34018182754516602 2.26164579391479492 190 153 112 255 1
8.34823322296142578 2.32404875755310059 2.06355738639831543 190 153 112 255 1
8.33355236053466797 2.32245016098022461 2.02688813209533691 190 153 112 255 1
8.32677650451660156 2.38553452491760254 1.98126578330993652 190 153 112 255 1
8.34461593627929688 2.34860587120056152 2.05961036682128906 190 153 112 255 1
8.34283924102783203 2.34147191047668457 2.02124357223510742 190 153 112 255 1
8.32596015930175781 2.38154864311218262 2.03090739250183105 190 153 112 255 1
8.33998775482177734 2.32387042045593262 1.99437475204467773 190 153 112 255 1
8.29531669616699219 2.29911065101623535 1.95226526260375977 190 153 112 255 1
8.32225704193115234 2.41218423843383789 2.01540374755859375 190 153 112 255 1
8.35439491271972656 2.31748366355895996 2.40623140335083008 190 153 112 255 1
8.34905719757080078 2.31846094131469727 2.34965896606445312 190 153 112 255 1
8.34773063659667969 2.3648078441619873 2.32581448554992676 190 153 112 255 1
8.34506416320800781 2.35080289840698242 2.35080361366271973 190 153 112 255 1
8.31314373016357422 2.27846813201904297 2.34821820259094238 190 153 112 255 1
8.29636573791503906 2.53775787353515625 2.22956562042236328 190 153 112 255 1
8.31479358673095703 2.4894413948059082 2.27403998374938965 190 153 112 255 1
8.31069564819335938 2.51400995254516602 2.45662999153137207 190 153 112 255 1
8.30971240997314453 2.28431439399719238 2.37262654304504395 190 153 112 255 1
8.30474185943603516 2.28926897048950195 2.42805004119873047 190 153 112 255 1
8.29510402679443359 2.51215267181396484 2.06966018676757812 190 153 112 255 1
8.29841899871826172 2.53429555892944336 2.15871953964233398 190 153 112 255 1
8.30607700347900391 2.50917887687683105 2.12545347213745117 190 153 112 255 1
8.31438541412353516 2.50552940368652344 2.33205556869506836 190 153 112 255 1
8.31862449645996094 2.49458551406860352 2.35995221138000488 190 153 112 255 1
8.32991886138916016 2.41941046714782715 2.14238643646240234 190 153 112 255 1
8.33087062835693359 2.39547038078308105 2.10063481330871582 190 153 112 255 1
8.31916046142578125 2.44993472099304199 2.10273289680480957 190 153 112 255 1
8.32614231109619141 2.3934791088104248 2.07031822204589844 190 153 112 255 1
8.33355522155761719 2.41888070106506348 2.42209339141845703 190 153 112 255 1
8.32394218444824219 2.47104334831237793 2.39824271202087402 190 153 112 255 1
8.33678054809570312 2.37821364402770996 2.45887565612792969 190 153 112 255 1
8.34916210174560547 2.35338211059570312 2.39148545265197754 190 153 112 255 1
8.34522914886474609 2.3638770580291748 2.42736530303955078 190 153 112 255 1
8.33903121948242188 2.33190369606018066 2.42794227600097656 190 153 112 255 1
8.30301856994628906 2.30822157859802246 2.43961858749389648 190 153 112 255 1
8.32751941680908203 2.34137654304504395 2.45305681228637695 190 153 112 255 1
8.31924819946289062 2.37031030654907227 2.47472715377807617 190 153 112 255 1
8.30953407287597656 2.50840926170349121 2.19542264938354492 190 153 112 255 1
8.31787395477294922 2.48338508605957031 2.20908570289611816 190 153 112 255 1
8.2746429443359375 2.4984891414642334 2.5572054386138916 190 153 112 255 1
8.27978992462158203 2.54511237144470215 2.5599205493927002 190 153 112 255 1
8.24263477325439453 2.46468806266784668 2.55347061157226562 190 153 112 255 1
8.11653518676757812 3.0509033203125 1.90676784515380859 190 153 112 255 1
8.09893226623535156 3.09047269821166992 1.88147079944610596 190 153 112 255 1
8.0943756103515625 3.09530496597290039 1.85281598567962646 190 153 112 255 1
8.11846256256103516 3.05268502235412598 1.8708949089050293 190 153 112 255 1
8.09447288513183594 3.12999486923217773 1.84450376033782959 190 153 112 255 1
8.04292583465576172 3.21206045150756836 1.93147838115692139 190 153 112 255 1
8.02099609375 3.30511260032653809 1.95693433284759521 190 153 112 255 1
8.00491046905517578 3.25194764137268066 1.90227651596069336 190 153 112 255 1
8.03979015350341797 3.23992753028869629 1.95320630073547363 190 153 112 255 1
8.00924491882324219 3.38440155982971191 2.09019970893859863 190 153 112 255 1
8.00771522521972656 3.39216423034667969 2.13494706153869629 190 153 112 255 1
8.23069858551025391 2.71771597862243652 2.23421287536621094 190 153 112 255 1
8.23278141021728516 2.72291111946105957 2.28477263450622559 190 153 112 255 1
8.01636314392089844 3.35822606086730957 2.2034614086151123 190 153 112 255 1
8.00425815582275391 3.41792058944702148 2.20804095268249512 190 153 112 255 1
8.00452995300292969 3.39565420150756836 2.16496109962463379 190 153 112 255 1
8.10042476654052734 3.10503125190734863 1.99727451801300049 190 153 112 255 1
8.11378192901611328 3.06687259674072266 2.05137991905212402 190 153 112 255 1
8.01224231719970703 3.34871292114257812 1.9673842191696167 190 153 112 255 1
8.11882400512695312 3.05414628982543945 2.16385483741760254 190 153 112 255 1
8.12631988525390625 3.05519485473632812 2.205230712890625 190 153 112 255 1
8.11112594604492188 3.08788394927978516 2.15850329399108887 190 153 112 255 1
8.11605358123779297 3.07572340965270996 2.18738508224487305 190 153 112 255 1
8.11572265625 3.04272270202636719 2.00835466384887695 190 153 112 255 1
8.14155673980712891 2.96465420722961426 2.05825114250183105 190 153 112 255 1
8.13163948059082031 3.00331878662109375 2.02143740653991699 190 153 112 255 1
7.99214315414428711 3.46385407447814941 2.22423958778381348 190 153 112 255 1
8.15451908111572266 2.98963451385498047 2.41688919067382812 190 153 112 255 1
8.16068553924560547 3.00776076316833496 2.44019865989685059 190 153 112 255 1
8.177001953125 2.96566343307495117 2.45240974426269531 190 153 112 255 1
8.28745746612548828 2.56767129898071289 2.33369278907775879 190 153 112 255 1
8.26623439788818359 2.61125540733337402 2.32287073135375977 190 153 112 255 1
8.26644039154052734 2.61798286437988281 2.40203571319580078 190 153 112 255 1
8.29386043548583984 2.55826783180236816 2.39188885688781738 190 153 112 255 1
8.18536281585693359 2.83547759056091309 1.91911780834197998 190 153 112 255 1
8.20029830932617188 2.80688095092773438 2.21260571479797363 190 153 112 255 1
8.22093105316162109 2.7544100284576416 2.18321371078491211 190 153 112 255 1
8.21426963806152344 2.76827311515808105 2.22309398651123047 190 153 112 255 1
7.98332643508911133 3.45499992370605469 2.09999990463256836 190 153 112 255 1
7.97653341293334961 3.47678232192993164 2.13729381561279297 190 153 112 255 1
8.28065109252929688 2.61969804763793945 2.50850749015808105 190 153 112 255 1
8.28108882904052734 2.56616353988647461 2.51831603050231934 190 153 112 255 1
8.28351020812988281 2.5969386100769043 2.48649716377258301 190 153 112 255 1
8.29120635986328125 2.54571890830993652 2.54624152183532715 190 153 112 255 1
8.04874038696289062 3.25552988052368164 2.20815014839172363 190 153 112 255 1
8.06777572631835938 3.20038270950317383 2.2326667308807373 190 153 112 255 1
8.05731105804443359 3.22138071060180664 2.20789837837219238 190 153 112 255 1
8.06071662902832031 3.21672630310058594 2.17583346366882324 190 153 112 255 1
8.04244327545166016 3.28528094291687012 2.14859700202941895 190 153 112 255 1
8.04750156402587891 3.2744591236114502 2.24321246147155762 190 153 112 255 1
8.02347087860107422 3.3283848762512207 2.1162559986114502 190 153 112 255 1
7.99516916275024414 3.4401705265045166 2.16190576553344727 190 153 112 255 1
7.9841313362121582 3.46451330184936523 2.1881263256072998 190 153 112 255 1
7.99782466888427734 3.4545435905456543 2.26917576789855957 190 153 112 255 1
8.06962108612060547 3.19823145866394043 2.26233458518981934 190 153 112 255 1
7.97444772720336914 3.44692397117614746 1.95874345302581787 190 153 112 255 1
7.93961763381958008 3.4162437915802002 1.8988567590713501 190 153 112 255 1
7.97947549819946289 3.40536260604858398 1.94236195087432861 190 153 112 255 1
7.95516490936279297 3.43754291534423828 1.91972267627716064 190 153 112 255 1
7.94758987426757812 3.49633502960205078 1.93338799476623535 190 153 112 255 1
8.16768264770507812 2.88395285606384277 1.87919747829437256 190 153 112 255 1
8.23231410980224609 2.70711231231689453 2.14638352394104004 190 153 112 255 1
8.23600578308105469 2.71063685417175293 2.08709216117858887 190 153 112 255 1
8.26663684844970703 2.66901516914367676 2.5251917839050293 190 153 112 255 1
8.23791694641113281 2.71649861335754395 2.5220949649810791 190 153 112 255 1
8.2593231201171875 2.70554018020629883 2.5462181568145752 190 153 112 255 1
8.02187347412109375 3.3720860481262207 2.24009132385253906 190 153 112 255 1
8.02308845520019531 3.41358184814453125 2.25812745094299316 190 153 112 255 1
8.05134487152099609 3.40784955024719238 2.28817653656005859 190 153 112 255 1
8.03163909912109375 3.37012004852294922 2.27613377571105957 190 153 112 255 1
8.04879188537597656 3.38279151916503906 2.29157662391662598 190 153 112 255 1
8.22009181976318359 2.73645710945129395 2.12378644943237305 190 153 112 255 1
8.20488643646240234 2.79177737236022949 2.14683437347412109 190 153 112 255 1
8.24870395660400391 2.69343757629394531 2.47682714462280273 190 153 112 255 1
8.22895622253417969 2.76539492607116699 2.48169136047363281 190 153 112 255 1
8.15175628662109375 2.93256783485412598 1.90248382091522217 190 153 112 255 1
8.12894153594970703 3.01729083061218262 1.84251046180725098 190 153 112 255 1
8.13921165466308594 2.96599769592285156 1.87101626396179199 190 153 112 255 1
8.12618541717529297 3.01032757759094238 1.87249886989593506 190 153 112 255 1
8.14678955078125 2.98142266273498535 1.84333407878875732 190 153 112 255 1
8.07536602020263672 3.26551151275634766 2.31259965896606445 190 153 112 255 1
8.07224369049072266 3.22267985343933105 2.28517770767211914 190 153 112 255 1
8.04619884490966797 3.30428194999694824 2.26998591423034668 190 153 112 255 1
8.15584754943847656 2.94315195083618164 2.14531230926513672 190 153 112 255 1
8.11652946472167969 3.07481241226196289 1.83331060409545898 190 153 112 255 1
8.11622333526611328 3.04424428939819336 1.8331301212310791 190 153 112 255 1
8.11542034149169922 3.05516648292541504 1.81159400939941406 190 153 112 255 1
8.14007854461669922 3.02166938781738281 2.39336800575256348 190 153 112 255 1
8.14042091369628906 3.04865479469299316 2.41715264320373535 190 153 112 255 1
8.13175773620605469 3.05781912803649902 2.38766670227050781 190 153 112 255 1
8.14437389373779297 3.09135890007019043 2.40831446647644043 190 153 112 255 1
8.14970207214355469 3.02323460578918457 2.42653822898864746 190 153 112 255 1
8.06570529937744141 3.16436457633972168 1.85459995269775391 190 153 112 255 1
8.04507064819335938 3.21583819389343262 1.82082009315490723 190 153 112 255 1
8.27342605590820312 2.56737303733825684 1.91478884220123291 190 153 112 255 1
8.25004005432128906 2.65163302421569824 1.98795187473297119 190 153 112 255 1
8.27439594268798828 2.55592083930969238 1.9634324312210083 190 153 112 255 1
8.26245784759521484 2.60248279571533203 1.98225653171539307 190 153 112 255 1
8.22747230529785156 2.70260381698608398 1.98939621448516846 190 153 112 255 1
7.99802303314208984 3.38307809829711914 1.98180770874023438 190 153 112 255 1
8.15334129333496094 2.98978614807128906 1.77152776718139648 190 153 112 255 1
8.16485118865966797 2.96780991554260254 1.78791534900665283 190 153 112 255 1
8.2852783203125 2.56942486763000488 2.42491602897644043 190 153 112 255 1
8.25520896911621094 2.65299534797668457 2.45305585861206055 190 153 112 255 1
8.28414154052734375 2.58389687538146973 2.45496749877929688 190 153 112 255 1
8.15939235687255859 2.93195986747741699 2.27061986923217773 190 153 112 255 1
8.17427539825439453 2.88430953025817871 2.26712346076965332 190 153 112 255 1
8.05011653900146484 3.21588444709777832 1.84397637844085693 190 153 112 255 1
7.99712657928466797 3.25745058059692383 1.89014673233032227 190 153 112 255 1
8.05173301696777344 3.20890402793884277 1.876983642578125 190 153 112 255 1
8.05353546142578125 3.1921229362487793 1.916298508644104 190 153 112 255 1
8.07325172424316406 3.17743611335754395 2.06897759437561035 190 153 112 255 1
8.23312187194824219 2.75224447250366211 2.52423691749572754 190 153 112 255 1
8.15728569030761719 2.96170568466186523 2.34869813919067383 190 153 112 255 1
8.17203807830810547 2.93670868873596191 2.38546872138977051 190 153 112 255 1
8.17633533477783203 2.89020657539367676 2.3673405647277832 190 153 112 255 1
8.20865058898925781 2.77235865592956543 1.92007601261138916 190 153 112 255 1
8.22611808776855469 2.71121335029602051 1.94797420501708984 190 153 112 255 1
8.20791816711425781 2.77121686935424805 1.95890319347381592 190 153 112 255 1
8.28473281860351562 2.56678032875061035 2.23780965805053711 190 153 112 255 1
8.26626777648925781 2.62151908874511719 2.21488118171691895 190 153 112 255 1
8.26864719390869141 2.60087728500366211 2.2406623363494873 190 153 112 255 1
8.215057373046875 2.77241015434265137 2.35509181022644043 190 153 112 255 1
8.23102569580078125 2.7335817813873291 2.36500024795532227 190 153 112 255 1
8.08107948303222656 3.15584826469421387 2.16632509231567383 190 153 112 255 1
8.10442161560058594 3.14414453506469727 2.32136964797973633 190 153 112 255 1
8.11722373962402344 3.14334940910339355 2.34786820411682129 190 153 112 255 1
8.09789180755615234 3.17422819137573242 2.34158539772033691 190 153 112 255 1
8.11804771423339844 3.17563056945800781 2.37179255485534668 190 153 112 255 1
8.12170124053955078 3.14393329620361328 2.37929463386535645 190 153 112 255 1
8.18532657623291016 2.83709216117858887 1.974509596824646 190 153 112 255 1
8.18011856079101562 2.8600001335144043 2.0149998664855957 190 153 112 255 1
8.20221138000488281 2.7902069091796875 2.03079652786254883 190 153 112 255 1
8.145172119140625 2.99957895278930664 2.34069561958312988 190 153 112 255 1
8.23696804046630859 2.70005321502685547 2.18192100524902344 190 153 112 255 1
8.25338077545166016 2.66124701499938965 2.1592714786529541 190 153 112 255 1
8.23182487487792969 2.72681546211242676 2.19337844848632812 190 153 112 255 1
8.23659229278564453 2.69492840766906738 2.22030282020568848 190 153 112 255 1
8.25315952301025391 2.65811514854431152 2.21418929100036621 190 153 112 255 1
8.25602817535400391 2.66184234619140625 2.26180815696716309 190 153 112 255 1
8.25177574157714844 2.65907669067382812 2.29674077033996582 190 153 112 255 1
8.23575592041015625 2.70840239524841309 2.25931906700134277 190 153 112 255 1
8.02338981628417969 3.30990457534790039 2.02473568916320801 190 153 112 255 1
8.04364681243896484 3.25997304916381836 2.09062433242797852 190 153 112 255 1
8.01210689544677734 3.34790182113647461 2.03338980674743652 190 153 112 255 1
8.02549839019775391 3.3121490478515625 2.07064342498779297 190 153 112 255 1
8.07315921783447266 3.15721464157104492 1.98490428924560547 190 153 112 255 1
8.09127140045166016 3.13731288909912109 2.04421901702880859 190 153 112 255 1
8.16304206848144531 2.9370124340057373 2.23093223571777344 190 153 112 255 1
8.03862285614013672 3.26903223991394043 2.03255248069763184 190 153 112 255 1
8.06018543243408203 3.20689272880554199 2.00612187385559082 190 153 112 255 1
8.05723667144775391 3.22889113426208496 2.0536959171295166 190 153 112 255 1
7.98068428039550781 3.3187258243560791 1.90291130542755127 190 153 112 255 1
7.9620661735534668 3.33014178276062012 1.87990617752075195 190 153 112 255 1
8.17736625671386719 2.89814114570617676 2.40562105178833008 190 153 112 255 1
8.18586254119873047 2.92002296447753906 2.44296073913574219 190 153 112 255 1
8.17165565490722656 2.95275068283081055 2.43588066101074219 190 153 112 255 1
8.26505470275878906 2.63287830352783203 2.11353683471679688 190 153 112 255 1
8.28256130218505859 2.57692813873291016 2.16499972343444824 190 153 112 255 1
8.28601741790771484 2.57477784156799316 2.11989808082580566 190 153 112 255 1
8.08473491668701172 3.15972733497619629 2.27471351623535156 190 153 112 255 1
8.07675743103027344 3.16951775550842285 2.21610879898071289 190 153 112 255 1
8.08590030670166016 3.17414212226867676 2.30788993835449219 190 153 112 255 1
8.10599136352539062 3.12429308891296387 2.29236626625061035 190 153 112 255 1
8.10925388336181641 3.07052755355834961 1.94733989238739014 190 153 112 255 1
8.26487922668457031 2.61793160438537598 2.26362085342407227 190 153 112 255 1
8.28369808197021484 2.57443404197692871 2.30165863037109375 190 153 112 255 1
8.30040454864501953 2.52994585037231445 2.27267098426818848 190 153 112 255 1
8.06417560577392578 3.29872965812683105 2.3128044605255127 190 153 112 255 1
8.15686702728271484 2.92884159088134766 2.0242919921875 190 153 112 255 1
8.24948883056640625 2.67741084098815918 2.09907293319702148 190 153 112 255 1
8.11133575439453125 3.02700614929199219 1.80979335308074951 190 153 112 255 1
8.12948131561279297 3.00369882583618164 1.79825389385223389 190 153 112 255 1
8.04495525360107422 3.27016782760620117 2.11252808570861816 190 153 112 255 1
8.06694698333740234 3.20407819747924805 2.14375710487365723 190 153 112 255 1
8.05552101135253906 3.22054028511047363 2.09560060501098633 190 153 112 255 1
8.23121929168701172 2.70935249328613281 2.0424191951751709 190 153 112 255 1
8.04850864410400391 3.3213493824005127 2.30848121643066406 190 153 112 255 1
8.04849529266357422 3.34078764915466309 2.30088186264038086 190 153 112 255 1
8.0861663818359375 3.22310090065002441 2.31392312049865723 190 153 112 255 1
8.08012771606445312 3.25526332855224609 2.33617401123046875 190 153 112 255 1
8.10148525238037109 3.21379303932189941 2.35091423988342285 190 153 112 255 1
8.082061767578125 3.16080594062805176 2.12373185157775879 190 153 112 255 1
8.08777141571044922 3.14373087882995605 2.08684134483337402 190 153 112 255 1
8.15742683410644531 2.91159224510192871 1.87045395374298096 190 153 112 255 1
8.12100315093994141 3.10664701461791992 2.36095881462097168 190 153 112 255 1
8.12980937957763672 3.10238409042358398 2.38518571853637695 190 153 112 255 1
8.13443470001220703 3.05517911911010742 2.35057854652404785 190 153 112 255 1
8.22735214233398438 2.73643207550048828 2.05688762664794922 190 153 112 255 1
8.21955013275146484 2.74362516403198242 2.01664113998413086 190 153 112 255 1
8.13237571716308594 2.99453186988830566 1.91434824466705322 190 153 112 255 1
8.13194561004638672 2.99861359596252441 1.96010458469390869 190 153 112 255 1
8.14243888854980469 2.96998262405395508 2.00213861465454102 190 153 112 255 1
8.12382125854492188 3.02451586723327637 1.93764567375183105 190 153 112 255 1
7.98507356643676758 3.43709492683410645 2.07876181602478027 190 153 112 255 1
8.19192123413085938 2.82515192031860352 2.09603214263916016 190 153 112 255 1
8.20505142211914062 2.78757333755493164 2.08840370178222656 190 153 112 255 1
8.17912387847900391 2.87874984741210938 2.16874980926513672 190 153 112 255 1
8.19259262084960938 2.83217334747314453 2.1654975414276123 190 153 112 255 1
8.23773193359375 2.70444011688232422 2.32793426513671875 190 153 112 255 1
8.26002120971679688 2.6399073600769043 2.34320688247680664 190 153 112 255 1
8.23526287078857422 2.70372939109802246 2.35232877731323242 190 153 112 255 1
8.24310493469238281 2.68540000915527344 2.36542701721191406 190 153 112 255 1
8.19373130798339844 2.83732151985168457 2.40092039108276367 190 153 112 255 1
8.21023273468017578 2.8176877498626709 2.45805764198303223 190 153 112 255 1
8.21105098724365234 2.83478593826293945 2.48180079460144043 190 153 112 255 1
8.19858551025390625 2.82822084426879883 2.43274617195129395 190 153 112 255 1
8.20488548278808594 2.86433315277099609 2.44953608512878418 190 153 112 255 1
8.25430011749267578 2.65732407569885254 2.02962827682495117 190 153 112 255 1
8.27108097076416016 2.59506607055664062 2.02008748054504395 190 153 112 255 1
8.28222560882568359 2.55868840217590332 2.06205034255981445 190 153 112 255 1
8.27886676788330078 2.55994248390197754 2.011474609375 190 153 112 255 1
8.26773166656494141 2.611175537109375 2.06010103225708008 190 153 112 255 1
8.07775974273681641 3.15465569496154785 1.88942122459411621 190 153 112 255 1
8.05814838409423828 3.16724801063537598 1.83188045024871826 190 153 112 255 1
8.08018016815185547 3.13525843620300293 1.86221003532409668 190 153 112 255 1
8.06339454650878906 3.1899864673614502 1.96273326873779297 190 153 112 255 1
8.07251548767089844 3.1585848331451416 1.94575703144073486 190 153 112 255 1
8.18581676483154297 2.85705947875976562 2.10567998886108398 190 153 112 255 1
8.17162799835205078 2.89566421508789062 2.13250017166137695 190 153 112 255 1
8.16753482818603516 2.90284538269042969 2.06683087348937988 190 153 112 255 1
8.155517578125 2.9365074634552002 2.0969085693359375 190 153 112 255 1
8.25871753692626953 2.6469426155090332 2.42569494247436523 190 153 112 255 1
8.23691558837890625 2.70284128189086914 2.4318382740020752 190 153 112 255 1
8.26460647583007812 2.64984607696533203 2.48605775833129883 190 153 112 255 1
8.15754604339599609 2.94686079025268555 2.30187129974365234 190 153 112 255 1
8.15360546112060547 2.96478724479675293 2.25950813293457031 190 153 112 255 1
8.22799396514892578 2.78162240982055664 2.49999499320983887 190 153 112 255 1
8.20303058624267578 2.86419796943664551 2.50382304191589355 190 153 112 255 1
8.21478748321533203 2.81556940078735352 2.50278496742248535 190 153 112 255 1
8.19334506988525391 2.83947658538818359 2.27284860610961914 190 153 112 255 1
8.20212745666503906 2.81552362442016602 2.32368326187133789 190 153 112 255 1
8.20766067504882812 2.79981446266174316 2.2678375244140625 190 153 112 255 1
8.17720222473144531 2.86652970314025879 2.32415986061096191 190 153 112 255 1
7.99779844284057617 3.36563229560852051 1.94349205493927002 190 153 112 255 1
8.01079845428466797 3.30153799057006836 1.9332122802734375 190 153 112 255 1
7.9741206169128418 3.45305633544921875 2.01039648056030273 190 153 112 255 1
8.19112682342529297 2.83107829093933105 2.36894631385803223 190 153 112 255 1
8.16126251220703125 2.90674829483032227 1.95736396312713623 190 153 112 255 1
8.149078369140625 2.9551398754119873 1.95035231113433838 190 153 112 255 1
8.17098712921142578 2.88228678703308105 1.91985750198364258 190 153 112 255 1
8.16576862335205078 2.8926241397857666 1.98656177520751953 190 153 112 255 1
8.11327743530273438 3.08285164833068848 2.11200642585754395 190 153 112 255 1
8.12258052825927734 3.04352307319641113 2.07661843299865723 190 153 112 255 1
8.13761329650878906 3.00529170036315918 2.18488359451293945 190 153 112 255 1
8.13278579711914062 3.02858567237854004 2.23612380027770996 190 153 112 255 1
8.20508193969726562 2.8812556266784668 2.48534369468688965 190 153 112 255 1
8.2023162841796875 2.89337968826293945 2.47043228149414062 190 153 112 255 1
8.21400165557861328 2.91818141937255859 2.47883892059326172 190 153 112 255 1
8.2104034423828125 2.78288102149963379 2.42972421646118164 190 153 112 255 1
8.2089080810546875 2.78929495811462402 2.39353847503662109 190 153 112 255 1
8.21971988677978516 2.76092982292175293 2.45019006729125977 190 153 112 255 1
8.23209190368652344 2.72776961326599121 2.42935085296630859 190 153 112 255 1
8.12429141998291016 3.05396103858947754 2.24434661865234375 190 153 112 255 1
8.12022686004638672 3.08904480934143066 2.28365015983581543 190 153 112 255 1
8.11041641235351562 3.10227704048156738 2.22975564002990723 190 153 112 255 1
8.13353919982910156 3.03849554061889648 2.27969455718994141 190 153 112 255 1
8.12779426574707031 3.06416487693786621 2.31220388412475586 190 153 112 255 1
8.00764369964599609 3.39015007019042969 2.0626826286315918 190 153 112 255 1
7.99390888214111328 3.4053959846496582 2.02136468887329102 190 153 112 255 1
7.92629241943359375 3.42334532737731934 1.88215911388397217 190 153 112 255 1
7.95442008972167969 3.37374091148376465 1.89349865913391113 190 153 112 255 1
8.01554775238037109 3.36328029632568359 2.1645958423614502 190 153 112 255 1
8.03378582000732422 3.30572938919067383 2.19000720977783203 190 153 112 255 1
8.03212547302246094 3.32181000709533691 2.23284459114074707 190 153 112 255 1
8.1373443603515625 3.00124979019165039 2.16499996185302734 190 153 112 255 1
8.13608837127685547 2.99565672874450684 2.09889793395996094 190 153 112 255 1
8.08339500427246094 3.13671422004699707 1.91690599918365479 190 153 112 255 1
8.18068790435791016 2.87585186958312988 2.21922945976257324 190 153 112 255 1
8.16014003753662109 2.94300341606140137 2.1932823657989502 190 153 112 255 1
8.27879238128662109 2.66357207298278809 2.55499076843261719 190 153 112 255 1
8.2741241455078125 2.63112831115722656 2.52957558631896973 190 153 112 255 1
8.26230049133300781 2.58174896240234375 2.56831645965576172 190 153 112 255 1
8.26573562622070312 2.58903193473815918 2.54917359352111816 190 153 112 255 1
8.28242111206054688 2.61725163459777832 2.57304477691650391 190 153 112 255 1
7.85346364974975586 3.65966367721557617 1.895255446434021 190 153 112 255 1
7.92992305755615234 3.50059127807617188 1.9114377498626709 190 153 112 255 1
7.90513515472412109 3.50172686576843262 1.8820723295211792 190 153 112 255 1
7.832489013671875 3.71742439270019531 1.89952182769775391 190 153 112 255 1
7.80895423889160156 3.69098663330078125 1.86282587051391602 190 153 112 255 1
7.83809852600097656 3.69622707366943359 1.90326607227325439 190 153 112 255 1
7.82681846618652344 3.65419173240661621 1.86481428146362305 190 153 112 255 1
7.87204360961914062 3.63571429252624512 1.91276359558105469 190 153 112 255 1
7.84806394577026367 3.61513328552246094 1.87905466556549072 190 153 112 255 1
7.87429285049438477 3.56449317932128906 1.87762820720672607 190 153 112 255 1
7.88821554183959961 3.59436225891113281 1.9124225378036499 190 153 112 255 1
7.89215087890625 3.53479790687561035 1.88746368885040283 190 153 112 255 1
7.92793798446655273 3.52996325492858887 1.92544543743133545 190 153 112 255 1
7.92572259902954102 3.55687236785888672 1.93068444728851318 190 153 112 255 1
7.96771860122680664 3.48961377143859863 2.12167024612426758 190 153 112 255 1
7.97370719909667969 3.48594355583190918 2.20778679847717285 190 153 112 255 1
7.9718165397644043 3.49718070030212402 2.17930245399475098 190 153 112 255 1
7.96002769470214844 3.48761177062988281 1.99415385723114014 190 153 112 255 1
7.96119403839111328 3.49400854110717773 2.0635673999786377 190 153 112 255 1
7.94202947616577148 3.51391220092773438 2.10071229934692383 190 153 112 255 1
7.90582752227783203 3.60145425796508789 2.16629409790039062 190 153 112 255 1
7.90620517730712891 3.5843346118927002 1.97175729274749756 190 153 112 255 1
7.89766120910644531 3.60825109481811523 2.03768563270568848 190 153 112 255 1
7.88238000869750977 3.6314234733581543 2.02737689018249512 190 153 112 255 1
7.89996576309204102 3.61865949630737305 2.06659221649169922 190 153 112 255 1
7.87126350402832031 3.65334486961364746 2.01041698455810547 190 153 112 255 1
7.9020233154296875 3.59339118003845215 1.9376908540725708 190 153 112 255 1
7.89501667022705078 3.61313581466674805 1.94005286693572998 190 153 112 255 1
7.89486360549926758 3.62154197692871094 1.98715543746948242 190 153 112 255 1
7.8631739616394043 3.6734004020690918 1.91766607761383057 190 153 112 255 1
7.87076616287231445 3.6463627815246582 1.96657216548919678 190 153 112 255 1
7.93272256851196289 3.55985689163208008 2.1322629451751709 190 153 112 255 1
7.95949840545654297 3.51357507705688477 2.16058516502380371 190 153 112 255 1
7.91529512405395508 3.58925938606262207 2.11824870109558105 190 153 112 255 1
