ply
format ascii 1.0
element vertex 604
property float x
property float y
property float z
property uchar red
property uchar green
property uchar blue
property uchar alpha
property uint label
end_header
5.98314809799194336 2.89354205131530762 1.41624999046325684 190 153 112 255 1
6.09848403930664062 3.23706817626953125 1.38184475898742676 190 153 112 255 1
6.06378555297851562 3.1404118537902832 1.32492184638977051 190 153 112 255 1
6.05471706390380859 3.1220705509185791 1.18478000164031982 190 153 112 255 1
5.95080280303955078 2.77661371231079102 1.47987532615661621 190 153 112 255 1
6.09085750579833984 3.2241368293762207 1.22540760040283203 190 153 112 255 1
6.10169410705566406 3.25310754776000977 1.25758755207061768 190 153 112 255 1
6.09199714660644531 3.22874999046325684 1.27125000953674316 190 153 112 255 1
6.09768104553222656 3.23734259605407715 1.21298444271087646 190 153 112 255 1
5.94905996322631836 2.79999971389770508 1.32499992847442627 190 153 112 255 1
5.97687864303588867 2.88478469848632812 1.18507218360900879 190 153 112 255 1
5.95435190200805664 2.81999993324279785 1.28250002861022949 190 153 112 255 1
5.95749521255493164 2.83176207542419434 1.20967602729797363 190 153 112 255 1
6.00939846038818359 2.96773862838745117 1.41374993324279785 190 153 112 255 1
5.99679422378540039 2.94850683212280273 1.20187497138977051 190 153 112 255 1
6.04727315902709961 3.07249975204467773 1.44781243801116943 190 153 112 255 1
5.99786233901977539 2.95124983787536621 1.26999998092651367 190 153 112 255 1
5.97651910781860352 2.88007807731628418 1.36203122138977051 190 153 112 255 1
6.03827953338623047 3.05988812446594238 1.37281250953674316 190 153 112 255 1
6.04328823089599609 3.08599853515625 1.22125005722045898 190 153 112 255 1
6.07265758514404297 3.1717066764831543 1.22872781753540039 190 153 112 255 1
5.94109439849853516 2.75 1.36124992370605469 190 153 112 255 1
5.94126319885253906 2.76999998092651367 1.32499992847442627 190 153 112 255 1
6.08204793930053711 3.17269182205200195 1.20679807662963867 190 153 112 255 1
6.00669574737548828 2.95140624046325684 1.47343754768371582 190 153 112 255 1
5.96311712265014648 2.8125 1.52250003814697266 190 153 112 255 1
6.10477876663208008 3.2105097770690918 1.50843513011932373 190 153 112 255 1
6.07221174240112305 3.0647735595703125 1.57293128967285156 190 153 112 255 1
6.13397455215454102 3.24290728569030762 1.54521477222442627 190 153 112 255 1
6.05357980728149414 3.04809856414794922 1.54843771457672119 190 153 112 255 1
6.07496500015258789 3.09869575500488281 1.54838013648986816 190 153 112 255 1
6.01613140106201172 2.93429780006408691 1.57279491424560547 190 153 112 255 1
6.0306854248046875 2.95518708229064941 1.58466625213623047 190 153 112 255 1
5.99607229232788086 2.89390969276428223 1.55835294723510742 190 153 112 255 1
6.02410697937011719 2.9883277416229248 1.51749992370605469 190 153 112 255 1
6.03523349761962891 3.0028679370880127 1.54218471050262451 190 153 112 255 1
6.05988502502441406 3.02978229522705078 1.57392168045043945 190 153 112 255 1
6.04428720474243164 3.0530247688293457 1.49689030647277832 190 153 112 255 1
6.08940649032592773 3.12385010719299316 1.55629575252532959 190 153 112 255 1
6.11005353927612305 3.18973255157470703 1.53508174419403076 190 153 112 255 1
5.98520612716674805 2.88210821151733398 1.52172541618347168 190 153 112 255 1
5.98414039611816406 2.83762240409851074 1.58920872211456299 190 153 112 255 1
6.00035238265991211 2.8781888484954834 1.59215271472930908 190 153 112 255 1
5.96717071533203125 2.78243732452392578 1.57730722427368164 190 153 112 255 1
6.02130222320556641 2.91869497299194336 1.59627914428710938 190 153 112 255 1
6.04460000991821289 2.52087616920471191 0.0526055991649627686 190 153 112 255 1
6.07498884201049805 2.4178617000579834 0.310448318719863892 190 153 112 255 1
6.07511329650878906 2.41998958587646484 0.352987319231033325 190 153 112 255 1
6.09671974182128906 2.42026305198669434 0.356026589870452881 190 153 112 255 1
6.07420778274536133 2.41079020500183105 0.418701022863388062 190 153 112 255 1
6.03272676467895508 2.47927570343017578 0.553151249885559082 190 153 112 255 1
6.00783777236938477 2.54499983787536621 0.564999997615814209 190 153 112 255 1
6.02541542053222656 2.49962353706359863 0.496043026447296143 190 153 112 255 1
6.01085805892944336 2.54033660888671875 0.519915163516998291 190 153 112 255 1
6.01306438446044922 2.53271245956420898 0.46249997615814209 190 153 112 255 1
6.04376697540283203 2.50477123260498047 0.0696869492530822754 190 153 112 255 1
6.03424072265625 2.53270506858825684 0.125 190 153 112 255 1
6.07376241683959961 2.40436410903930664 0.518643379211425781 190 153 112 255 1
6.0651707649230957 2.41502141952514648 0.545682728290557861 190 153 112 255 1
6.04530906677246094 2.46443748474121094 0.490944713354110718 190 153 112 255 1
6.06211280822753906 2.4361109733581543 0.268603473901748657 190 153 112 255 1
6.04553890228271484 2.47780466079711914 0.297523230314254761 190 153 112 255 1
6.04186296463012695 2.48064136505126953 0.232607439160346985 190 153 112 255 1
6.03644990921020508 2.49806308746337891 0.200089976191520691 190 153 112 255 1
6.04359817504882812 2.48811006546020508 0.164516270160675049 190 153 112 255 1
6.01607990264892578 2.5318300724029541 0.24950052797794342 190 153 112 255 1
6.0093388557434082 2.55580663681030273 0.240934804081916809 190 153 112 255 1
6.06244659423828125 2.4368586540222168 0.353254497051239014 190 153 112 255 1
6.09675025939941406 2.4261620044708252 0.249874711036682129 190 153 112 255 1
6.09814214706420898 2.40482664108276367 0.508623838424682617 190 153 112 255 1
6.03294801712036133 2.49851179122924805 0.329391300678253174 190 153 112 255 1
6.04780673980712891 2.46773362159729004 0.388831228017807007 190 153 112 255 1
6.01244115829467773 2.53895807266235352 0.365327537059783936 190 153 112 255 1
6.04490900039672852 2.46250581741333008 0.448434561491012573 190 153 112 255 1
6.06428050994873047 2.4175572395324707 0.489654898643493652 190 153 112 255 1
6.06407880783081055 2.42390012741088867 0.402078151702880859 190 153 112 255 1
6.06363773345947266 2.43322372436523438 0.230811551213264465 190 153 112 255 1
6.0756077766418457 2.43166422843933105 0.188471123576164246 190 153 112 255 1
6.02758550643920898 2.50744199752807617 0.306215733289718628 190 153 112 255 1
6.09684610366821289 2.42763972282409668 0.223534032702445984 190 153 112 255 1
6.07486629486083984 2.42377376556396484 0.249656841158866882 190 153 112 255 1
6.11146068572998047 2.44769620895385742 0.184677496552467346 190 153 112 255 1
6.02721929550170898 2.49884963035583496 0.434259355068206787 190 153 112 255 1
6.08352756500244141 2.41649007797241211 1.39459371566772461 190 153 112 255 1
6.10339117050170898 2.42058610916137695 1.42358112335205078 190 153 112 255 1
6.10526657104492188 2.42979288101196289 1.38715243339538574 190 153 112 255 1
6.07529067993164062 2.41603922843933105 1.34308576583862305 190 153 112 255 1
6.09331560134887695 2.41160798072814941 1.44555425643920898 190 153 112 255 1
6.07462167739868164 2.3918907642364502 0.903276622295379639 190 153 112 255 1
6.04024219512939453 2.50331592559814453 1.37663853168487549 190 153 112 255 1
6.05400466918945312 2.49435830116271973 1.45405793190002441 190 153 112 255 1
6.07211112976074219 2.40005779266357422 0.850116610527038574 190 153 112 255 1
6.01534938812255859 2.52259254455566406 0.681394338607788086 190 153 112 255 1
6.04364967346191406 2.46164321899414062 0.658837318420410156 190 153 112 255 1
6.0310978889465332 2.48370718955993652 0.634338319301605225 190 153 112 255 1
6.08512401580810547 2.38494300842285156 0.982582330703735352 190 153 112 255 1
6.10525226593017578 2.39165997505187988 1.01788628101348877 190 153 112 255 1
6.06264591217041016 2.489044189453125 1.49868488311767578 190 153 112 255 1
6.03933620452880859 2.54114151000976562 1.47491395473480225 190 153 112 255 1
6.03688478469848633 2.52736616134643555 1.42662286758422852 190 153 112 255 1
6.07693147659301758 2.3932187557220459 0.728735506534576416 190 153 112 255 1
6.07498645782470703 2.39795327186584473 0.768198847770690918 190 153 112 255 1
6.03853273391723633 2.46901559829711914 1.08317935466766357 190 153 112 255 1
6.0333256721496582 2.47997593879699707 1.12036585807800293 190 153 112 255 1
6.07181882858276367 2.39077901840209961 0.981676399707794189 190 153 112 255 1
6.05332803726196289 2.43741726875305176 0.980732560157775879 190 153 112 255 1
6.07244539260864258 2.39335513114929199 1.00428450107574463 190 153 112 255 1
6.03524112701416016 2.47344517707824707 0.848094522953033447 190 153 112 255 1
6.0254206657409668 2.50005841255187988 0.790213644504547119 190 153 112 255 1
6.00710201263427734 2.54448747634887695 0.819439291954040527 190 153 112 255 1
6.09546232223510742 2.39695334434509277 0.613505721092224121 190 153 112 255 1
6.09583425521850586 2.39923691749572754 0.564607560634613037 190 153 112 255 1
6.06401968002319336 2.44760799407958984 1.3326570987701416 190 153 112 255 1
6.07291698455810547 2.39821100234985352 0.947345912456512451 190 153 112 255 1
6.06953716278076172 2.45039272308349609 1.38791477680206299 190 153 112 255 1
6.05724382400512695 2.43750190734863281 1.12815022468566895 190 153 112 255 1
6.038787841796875 2.48220014572143555 1.15638649463653564 190 153 112 255 1
6.060546875 2.44233441352844238 1.16679167747497559 190 153 112 255 1
6.07470464706420898 2.40508890151977539 1.16725397109985352 190 153 112 255 1
6.04498386383056641 2.46552777290344238 1.19468271732330322 190 153 112 255 1
6.03397369384765625 2.47692036628723145 0.748696088790893555 190 153 112 255 1
6.02459621429443359 2.49570298194885254 0.700477063655853271 190 153 112 255 1
6.08094644546508789 2.39275074005126953 1.22899913787841797 190 153 112 255 1
6.07642412185668945 2.40997648239135742 1.28349363803863525 190 153 112 255 1
6.08475255966186523 2.39571809768676758 1.18653833866119385 190 153 112 255 1
6.10632896423339844 2.39800286293029785 1.2161712646484375 190 153 112 255 1
6.07292890548706055 2.39740633964538574 1.12493658065795898 190 153 112 255 1
6.10747480392456055 2.4001469612121582 1.15818750858306885 190 153 112 255 1
6.01682376861572266 2.5140998363494873 0.863679945468902588 190 153 112 255 1
6.03440475463867188 2.47378373146057129 0.898749947547912598 190 153 112 255 1
6.01096153259277344 2.53499984741210938 0.914999961853027344 190 153 112 255 1
6.03238582611083984 2.4806668758392334 1.0279308557510376 190 153 112 255 1
6.0309453010559082 2.47365736961364746 0.978135466575622559 190 153 112 255 1
6.00660896301269531 2.53999996185302734 0.974999964237213135 190 153 112 255 1
6.07202434539794922 2.3989722728729248 0.637462973594665527 190 153 112 255 1
6.07133054733276367 2.40333890914916992 0.690110087394714355 190 153 112 255 1
6.04552364349365234 2.46140933036804199 0.692463874816894531 190 153 112 255 1
6.010498046875 2.54427146911621094 1.10056376457214355 190 153 112 255 1
6.00712299346923828 2.56219792366027832 1.18156242370605469 190 153 112 255 1
6.03570365905761719 2.48600435256958008 1.18694937229156494 190 153 112 255 1
6.01846408843994141 2.53118348121643066 1.1491931676864624 190 153 112 255 1
6.07132101058959961 2.39494681358337402 1.07437026500701904 190 153 112 255 1
6.03165102005004883 2.50117015838623047 1.24859738349914551 190 153 112 255 1
6.09557008743286133 2.39212870597839355 0.88712918758392334 190 153 112 255 1
6.09493207931518555 2.39412140846252441 0.776118040084838867 190 153 112 255 1
6.04483318328857422 2.47499990463256836 1.29499995708465576 190 153 112 255 1
6.06128883361816406 2.43838596343994141 1.19790863990783691 190 153 112 255 1
6.05499982833862305 2.43770861625671387 1.01999998092651367 190 153 112 255 1
6.05295181274414062 2.44499993324279785 1.08499991893768311 190 153 112 255 1
6.09560728073120117 2.39722466468811035 0.707584559917449951 190 153 112 255 1
6.06676816940307617 2.40577077865600586 0.892771661281585693 190 153 112 255 1
6.05380487442016602 2.44378232955932617 0.951182067394256592 190 153 112 255 1
6.03266811370849609 2.48185253143310547 0.950194954872131348 190 153 112 255 1
6.08543062210083008 2.38583135604858398 1.05497407913208008 190 153 112 255 1
6.08529949188232422 2.38608050346374512 1.11676371097564697 190 153 112 255 1
6.08498191833496094 2.38990259170532227 0.853145778179168701 190 153 112 255 1
6.05117321014404297 2.4458160400390625 0.749796867370605469 190 153 112 255 1
6.06647634506225586 2.40588283538818359 0.731548964977264404 190 153 112 255 1
6.04807806015014648 2.45687580108642578 0.790006458759307861 190 153 112 255 1
6.10608816146850586 2.38833165168762207 1.11526477336883545 190 153 112 255 1
6.06693840026855469 2.41219091415405273 0.785732269287109375 190 153 112 255 1
6.05395889282226562 2.44213771820068359 0.863034486770629883 190 153 112 255 1
6.04730319976806641 2.45908904075622559 0.623478591442108154 190 153 112 255 1
6.02505064010620117 2.49682450294494629 0.583593368530273438 190 153 112 255 1
6.06439447402954102 2.41401171684265137 0.605648398399353027 190 153 112 255 1
6.0487518310546875 2.44855999946594238 0.570253312587738037 190 153 112 255 1
6.07374477386474609 2.40244603157043457 0.585481584072113037 190 153 112 255 1
6.10384702682495117 2.41495156288146973 1.3605504035949707 190 153 112 255 1
6.08569192886352539 2.3964688777923584 1.26652657985687256 190 153 112 255 1
6.10489845275878906 2.40224528312683105 1.26533079147338867 190 153 112 255 1
6.08428096771240234 2.40857863426208496 1.35181379318237305 190 153 112 255 1
6.1051783561706543 2.40422391891479492 1.3101356029510498 190 153 112 255 1
6.11556577682495117 2.40934848785400391 1.44779908657073975 190 153 112 255 1
6.08973169326782227 2.4259030818939209 1.4923471212387085 190 153 112 255 1
6.0752406120300293 2.45909476280212402 1.44718170166015625 190 153 112 255 1
6.08372926712036133 2.42499780654907227 1.43109679222106934 190 153 112 255 1
6.08482217788696289 2.38918161392211914 0.94672316312789917 190 153 112 255 1
6.04744148254394531 2.47873878479003906 1.37092506885528564 190 153 112 255 1
6.02459430694580078 2.53696107864379883 1.3443748950958252 190 153 112 255 1
6.08013153076171875 2.46578812599182129 1.4900137186050415 190 153 112 255 1
5.99087619781494141 2.68836307525634766 0.0513181686401367188 190 153 112 255 1
5.98882722854614258 2.65830683708190918 0.171026527881622314 190 153 112 255 1
5.99795103073120117 2.58336520195007324 0.291563898324966431 190 153 112 255 1
6.00369977951049805 2.56613373756408691 0.351568639278411865 190 153 112 255 1
5.94735813140869141 2.80439925193786621 0.0702419653534889221 190 153 112 255 1
5.94456863403320312 2.74177002906799316 0.273750007152557373 190 153 112 255 1
5.93251371383666992 2.78499984741210938 0.28750002384185791 190 153 112 255 1
5.95520782470703125 2.71076726913452148 0.302500009536743164 190 153 112 255 1
5.94197273254394531 2.74503636360168457 0.344915717840194702 190 153 112 255 1
5.94150972366333008 2.75009489059448242 0.397971630096435547 190 153 112 255 1
5.93076705932617188 2.78270721435546875 0.336122661828994751 190 153 112 255 1
5.96124553680419922 2.68499994277954102 0.414375007152557373 190 153 112 255 1
5.96548175811767578 2.66978192329406738 0.480325311422348022 190 153 112 255 1
5.99489068984985352 2.58923029899597168 0.453834742307662964 190 153 112 255 1
5.99499988555908203 2.58486127853393555 0.414999991655349731 190 153 112 255 1
5.97614479064941406 2.64749956130981445 0.236028417944908142 190 153 112 255 1
5.96097326278686523 2.78405022621154785 0.500649094581604004 190 153 112 255 1
5.97219562530517578 2.75165653228759766 0.504036188125610352 190 153 112 255 1
5.97499895095825195 2.64203119277954102 0.408749997615814209 190 153 112 255 1
6.01433086395263672 2.5958092212677002 0.0696794763207435608 190 153 112 255 1
5.99834632873535156 2.64227628707885742 0.110312499105930328 190 153 112 255 1
6.01330900192260742 2.59329366683959961 0.143124997615814209 190 153 112 255 1
6.03167533874511719 2.5486137866973877 0.0671825110912322998 190 153 112 255 1
6.02756929397583008 2.58226323127746582 0.050580199807882309 190 153 112 255 1
5.95975017547607422 2.75639104843139648 0.0706770345568656921 190 153 112 255 1
5.97573375701904297 2.71328449249267578 0.0933574438095092773 190 153 112 255 1
5.97259998321533203 2.71201276779174805 0.162499994039535522 190 153 112 255 1
5.98323822021484375 2.61514568328857422 0.485754668712615967 190 153 112 255 1
5.99609136581420898 2.57613563537597656 0.536729514598846436 190 153 112 255 1
5.98807525634765625 2.60482287406921387 0.553269088268280029 190 153 112 255 1
6.00541353225708008 2.65044808387756348 0.0539289414882659912 190 153 112 255 1
5.99358463287353516 2.60251522064208984 0.224014684557914734 190 153 112 255 1
5.99729204177856445 2.6335761547088623 0.190760582685470581 190 153 112 255 1
5.97573614120483398 2.67847108840942383 0.202209651470184326 190 153 112 255 1
6.00711822509765625 2.59751272201538086 0.187831908464431763 190 153 112 255 1
6.0239558219909668 2.54682803153991699 0.191594243049621582 190 153 112 255 1
6.00580739974975586 2.62680816650390625 0.0704560652375221252 190 153 112 255 1
5.96234273910522461 2.70304346084594727 0.484630078077316284 190 153 112 255 1
5.96456670761108398 2.67857861518859863 0.531494796276092529 190 153 112 255 1
5.96317481994628906 2.67874979972839355 0.349999994039535522 190 153 112 255 1
5.98125219345092773 2.62674522399902344 0.350937515497207642 190 153 112 255 1
5.94742727279663086 2.72263693809509277 0.449203401803970337 190 153 112 255 1
5.94605541229248047 2.74383926391601562 0.468672007322311401 190 153 112 255 1
5.94728422164916992 2.79256916046142578 0.155814588069915771 190 153 112 255 1
5.9557805061340332 2.75459694862365723 0.18475872278213501 190 153 112 255 1
5.93779802322387695 2.7672884464263916 0.236130982637405396 190 153 112 255 1
5.98387527465820312 2.69010305404663086 0.0644243583083152771 190 153 112 255 1
5.96927738189697266 2.66644525527954102 0.257499992847442627 190 153 112 255 1
5.97961521148681641 2.63816165924072266 0.296249985694885254 190 153 112 255 1
5.95764875411987305 2.7078244686126709 0.239903807640075684 190 153 112 255 1
5.94262981414794922 2.79362368583679199 0.199126139283180237 190 153 112 255 1
5.97395181655883789 2.63984560966491699 0.562102317810058594 190 153 112 255 1
5.96012592315673828 2.67556238174438477 0.596517503261566162 190 153 112 255 1
6.01726245880126953 2.56729435920715332 1.40084445476531982 190 153 112 255 1
5.98736381530761719 2.6088862419128418 0.727768421173095703 190 153 112 255 1
5.99773788452148438 2.57235217094421387 0.72012019157409668 190 153 112 255 1
6.01128292083740234 2.53647470474243164 0.64374995231628418 190 153 112 255 1
6.00097942352294922 2.56467390060424805 1.0276561975479126 190 153 112 255 1
5.9927515983581543 2.62789535522460938 1.38251006603240967 190 153 112 255 1
5.97179079055786133 2.64061284065246582 1.09956634044647217 190 153 112 255 1
5.97560787200927734 2.63119769096374512 1.05610752105712891 190 153 112 255 1
5.99640846252441406 2.59186100959777832 1.2340625524520874 190 153 112 255 1
6.00847911834716797 2.56456756591796875 1.24374997615814209 190 153 112 255 1
6.0027313232421875 2.55554819107055664 0.605853080749511719 190 153 112 255 1
5.97522258758544922 2.62171220779418945 0.969465732574462891 190 153 112 255 1
5.97159385681152344 2.63628268241882324 1.02261579036712646 190 153 112 255 1
5.95967817306518555 2.69486713409423828 1.30092811584472656 190 153 112 255 1
5.97385168075561523 2.66643738746643066 1.32611000537872314 190 153 112 255 1
5.98308515548706055 2.63014459609985352 1.27907443046569824 190 153 112 255 1
5.94212627410888672 2.73000001907348633 1.25562500953674316 190 153 112 255 1
5.94116067886352539 2.73492789268493652 1.20500922203063965 190 153 112 255 1
6.01199913024902344 2.56750011444091797 1.32499992847442627 190 153 112 255 1
6.02474021911621094 2.52899360656738281 1.30437493324279785 190 153 112 255 1
5.99695444107055664 2.59915685653686523 1.30321598052978516 190 153 112 255 1
5.94401836395263672 2.73576617240905762 1.35093748569488525 190 153 112 255 1
5.94450521469116211 2.74630475044250488 1.43041598796844482 190 153 112 255 1
5.9702754020690918 2.65429353713989258 1.14609694480895996 190 153 112 255 1
5.9707188606262207 2.64871835708618164 0.640873253345489502 190 153 112 255 1
5.96497583389282227 2.66874933242797852 0.700937509536743164 190 153 112 255 1
5.96339273452758789 2.68038129806518555 0.650538027286529541 190 153 112 255 1
5.99062156677246094 2.59624195098876953 0.638749957084655762 190 153 112 255 1
5.99963951110839844 2.57256340980529785 0.691249966621398926 190 153 112 255 1
5.98395586013793945 2.61531281471252441 0.943344771862030029 190 153 112 255 1
5.98060798645019531 2.70172381401062012 1.49077236652374268 190 153 112 255 1
5.95186901092529297 2.74970340728759766 1.49253535270690918 190 153 112 255 1
5.95183420181274414 2.74065232276916504 1.46353244781494141 190 153 112 255 1
5.97793769836425781 2.63148164749145508 0.658405780792236328 190 153 112 255 1
5.99801492691040039 2.63196015357971191 1.44604122638702393 190 153 112 255 1
6.00156497955322266 2.64409923553466797 1.49653506278991699 190 153 112 255 1
6.022186279296875 2.58590960502624512 1.47830009460449219 190 153 112 255 1
6.00091838836669922 2.62975096702575684 1.47298645973205566 190 153 112 255 1
6.02907180786132812 2.55311298370361328 1.45117735862731934 190 153 112 255 1
5.98562431335449219 2.61093425750732422 0.800973355770111084 190 153 112 255 1
5.99167060852050781 2.59107255935668945 0.875625014305114746 190 153 112 255 1
5.97126960754394531 2.64527702331542969 0.934661567211151123 190 153 112 255 1
5.96363639831542969 2.68499994277954102 0.967499971389770508 190 153 112 255 1
5.97557783126831055 2.69357728958129883 1.44328558444976807 190 153 112 255 1
5.96995162963867188 2.69197535514831543 1.39839887619018555 190 153 112 255 1
6.0105128288269043 2.54138064384460449 0.765312492847442627 190 153 112 255 1
5.95321989059448242 2.70250368118286133 1.19951677322387695 190 153 112 255 1
5.97117233276367188 2.65789055824279785 1.234375 190 153 112 255 1
5.99580764770507812 2.58546924591064453 1.13218748569488525 190 153 112 255 1
5.97827577590942383 2.62373709678649902 0.855521082878112793 190 153 112 255 1
5.96239423751831055 2.68499994277954102 0.860624969005584717 190 153 112 255 1
5.96321201324462891 2.67496228218078613 0.832267105579376221 190 153 112 255 1
5.97572517395019531 2.63490533828735352 0.809822738170623779 190 153 112 255 1
5.96502828598022461 2.66965818405151367 0.754239261150360107 190 153 112 255 1
5.96272516250610352 2.68361115455627441 0.756135165691375732 190 153 112 255 1
5.97762632369995117 2.63241195678710938 0.73203122615814209 190 153 112 255 1
6.00220155715942383 2.66442704200744629 1.53455650806427002 190 153 112 255 1
6.00064516067504883 2.65087437629699707 1.52103316783905029 190 153 112 255 1
6.01846456527709961 2.66121912002563477 1.56525218486785889 190 153 112 255 1
6.01603841781616211 2.70508956909179688 1.5824655294418335 190 153 112 255 1
6.03338241577148438 2.6959691047668457 1.58541965484619141 190 153 112 255 1
6.0333857536315918 2.67198061943054199 1.58528757095336914 190 153 112 255 1
5.95044660568237305 2.75679492950439453 1.52965593338012695 190 153 112 255 1
5.98131561279296875 2.70743250846862793 1.52027702331542969 190 153 112 255 1
5.99339008331298828 2.75657963752746582 1.5769801139831543 190 153 112 255 1
5.99033975601196289 2.71879744529724121 1.54968667030334473 190 153 112 255 1
6.11007022857666016 3.26441287994384766 1.31920814514160156 190 153 112 255 1
6.22732830047607422 3.40114307403564453 1.11213254928588867 190 153 112 255 1
6.2048039436340332 3.37497544288635254 1.20852565765380859 190 153 112 255 1
6.20116424560546875 3.35772323608398438 1.34657537937164307 190 153 112 255 1
6.21908044815063477 3.3743283748626709 1.34046947956085205 190 153 112 255 1
6.21505117416381836 3.3771977424621582 1.30278980731964111 190 153 112 255 1
6.16531610488891602 3.33052229881286621 1.29092681407928467 190 153 112 255 1
6.23416757583618164 3.37983202934265137 1.42697203159332275 190 153 112 255 1
6.25622940063476562 3.42081665992736816 1.24034035205841064 190 153 112 255 1
6.25585269927978516 3.42207431793212891 1.19818770885467529 190 153 112 255 1
6.11461925506591797 3.25804615020751953 1.41666102409362793 190 153 112 255 1
6.11686229705810547 3.24802660942077637 1.49817788600921631 190 153 112 255 1
6.24380302429199219 3.40609049797058105 1.28073859214782715 190 153 112 255 1
6.2683568000793457 3.43553924560546875 1.19493556022644043 190 153 112 255 1
6.24617958068847656 3.41487264633178711 1.15498602390289307 190 153 112 255 1
6.23038053512573242 3.40154027938842773 1.1587756872177124 190 153 112 255 1
6.1443486213684082 3.30847501754760742 1.29254233837127686 190 153 112 255 1
6.14979791641235352 3.29032802581787109 1.48521912097930908 190 153 112 255 1
6.19742488861083984 3.34382081031799316 1.43478453159332275 190 153 112 255 1
6.1986699104309082 3.33857393264770508 1.48209667205810547 190 153 112 255 1
6.1627039909362793 3.32357668876647949 1.33770132064819336 190 153 112 255 1
6.21396970748901367 3.36821460723876953 1.36905813217163086 190 153 112 255 1
6.23816061019897461 3.39014196395874023 1.39043247699737549 190 153 112 255 1
6.21419143676757812 3.35905885696411133 1.44029951095581055 190 153 112 255 1
6.1547245979309082 3.31294655799865723 1.36372160911560059 190 153 112 255 1
6.14728689193725586 3.29603886604309082 1.42199218273162842 190 153 112 255 1
6.18129634857177734 3.32737517356872559 1.43702185153961182 190 153 112 255 1
6.2035975456237793 3.35498547554016113 1.39692091941833496 190 153 112 255 1
6.24459934234619141 3.38360285758972168 1.48172783851623535 190 153 112 255 1
6.14726591110229492 3.27772212028503418 1.52647793292999268 190 153 112 255 1
6.22785854339599609 3.40434956550598145 0.563624560832977295 190 153 112 255 1
6.2946009635925293 3.45735001564025879 1.30187666416168213 190 153 112 255 1
6.24444913864135742 3.41801571846008301 0.95425105094909668 190 153 112 255 1
6.23810958862304688 3.3960261344909668 0.974057316780090332 190 153 112 255 1
6.253143310546875 3.43766641616821289 0.997113525867462158 190 153 112 255 1
6.2680668830871582 3.4521174430847168 1.04085814952850342 190 153 112 255 1
6.25867938995361328 3.44085168838500977 1.07573723793029785 190 153 112 255 1
6.26589107513427734 3.44457197189331055 1.09775042533874512 190 153 112 255 1
6.23236703872680664 3.40223240852355957 0.656636953353881836 190 153 112 255 1
6.21499776840209961 3.3814089298248291 1.09515738487243652 190 153 112 255 1
6.23648929595947266 3.39013457298278809 1.07975280284881592 190 153 112 255 1
6.24608898162841797 3.47509431838989258 0.834361732006072998 190 153 112 255 1
6.25241565704345703 3.45877718925476074 0.850474953651428223 190 153 112 255 1
6.25197792053222656 3.46161246299743652 0.726876914501190186 190 153 112 255 1
6.24944543838500977 3.46388912200927734 0.693446040153503418 190 153 112 255 1
6.24326515197753906 3.4359443187713623 0.76830291748046875 190 153 112 255 1
6.2380976676940918 3.40862703323364258 0.741685688495635986 190 153 112 255 1
6.24322175979614258 3.40805602073669434 1.03508651256561279 190 153 112 255 1
6.24087190628051758 3.48462605476379395 0.717231035232543945 190 153 112 255 1
6.24315929412841797 3.48318028450012207 0.788046717643737793 190 153 112 255 1
6.25235509872436523 3.46081233024597168 0.776638269424438477 190 153 112 255 1
6.24735212326049805 3.43327069282531738 0.875092446804046631 190 153 112 255 1
6.29056692123413086 3.46050786972045898 1.21539366245269775 190 153 112 255 1
6.28576231002807617 3.45002436637878418 1.2618715763092041 190 153 112 255 1
6.27670621871948242 3.44379854202270508 1.21519267559051514 190 153 112 255 1
6.25812530517578125 3.45310592651367188 0.889410734176635742 190 153 112 255 1
6.2475433349609375 3.47429585456848145 0.889409244060516357 190 153 112 255 1
6.25869321823120117 3.4502413272857666 0.945813536643981934 190 153 112 255 1
6.24744367599487305 3.47181200981140137 0.9579659104347229 190 153 112 255 1
6.2413477897644043 3.42419075965881348 0.708736300468444824 190 153 112 255 1
6.27476835250854492 3.44995951652526855 1.16840028762817383 190 153 112 255 1
6.28884220123291016 3.4549868106842041 1.19129610061645508 190 153 112 255 1
6.27765369415283203 3.45796728134155273 1.1368793249130249 190 153 112 255 1
6.24919462203979492 3.42047452926635742 1.10228872299194336 190 153 112 255 1
6.23950910568237305 3.40926051139831543 0.817596495151519775 190 153 112 255 1
6.2349543571472168 3.39545178413391113 0.942348897457122803 190 153 112 255 1
6.23080539703369141 3.39353823661804199 0.868709683418273926 190 153 112 255 1
6.2303767204284668 3.38687252998352051 1.00166428089141846 190 153 112 255 1
6.23869085311889648 3.40526437759399414 0.86301034688949585 190 153 112 255 1
6.10740470886230469 3.28560662269592285 0.46292915940284729 190 153 112 255 1
6.12704706192016602 3.33281755447387695 0.527669787406921387 190 153 112 255 1
6.06507968902587891 3.19727540016174316 0.447437822818756104 190 153 112 255 1
6.08562421798706055 3.2248694896697998 0.469146490097045898 190 153 112 255 1
6.10558128356933594 3.27971673011779785 0.513407886028289795 190 153 112 255 1
6.06100702285766602 3.18158555030822754 0.481915652751922607 190 153 112 255 1
6.13877153396606445 3.37466239929199219 0.431951671838760376 190 153 112 255 1
6.14889955520629883 3.37068819999694824 0.540959715843200684 190 153 112 255 1
6.14442014694213867 3.37604498863220215 0.483368396759033203 190 153 112 255 1
6.07451248168945312 3.24641656875610352 0.254999995231628418 190 153 112 255 1
6.22623395919799805 3.41303396224975586 0.43222498893737793 190 153 112 255 1
6.21262598037719727 3.41041254997253418 0.452923446893692017 190 153 112 255 1
6.20278120040893555 3.42408323287963867 0.386034488677978516 190 153 112 255 1
6.16290855407714844 3.3870849609375 0.535702526569366455 190 153 112 255 1
6.21572542190551758 3.40364718437194824 0.52087479829788208 190 153 112 255 1
6.20138978958129883 3.41327238082885742 0.524127304553985596 190 153 112 255 1
6.22926092147827148 3.41049623489379883 0.490286648273468018 190 153 112 255 1
6.08782339096069336 3.27576231956481934 0.401630103588104248 190 153 112 255 1
6.21915578842163086 3.42590498924255371 0.138911187648773193 190 153 112 255 1
6.22550535202026367 3.42394495010375977 0.220132723450660706 190 153 112 255 1
6.11082792282104492 3.33112597465515137 0.40677914023399353 190 153 112 255 1
6.22475242614746094 3.42379856109619141 0.255084633827209473 190 153 112 255 1
6.21477460861206055 3.42178106307983398 0.264784008264541626 190 153 112 255 1
6.22489070892333984 3.41828489303588867 0.332000821828842163 190 153 112 255 1
6.21456289291381836 3.41240787506103516 0.381161600351333618 190 153 112 255 1
6.09055423736572266 3.28921866416931152 0.324531227350234985 190 153 112 255 1
6.12814712524414062 3.35000205039978027 0.454550951719284058 190 153 112 255 1
6.09207677841186523 3.27422952651977539 0.439117133617401123 190 153 112 255 1
6.11411809921264648 3.31693625450134277 0.435466408729553223 190 153 112 255 1
6.07052707672119141 3.19694900512695312 0.536212921142578125 190 153 112 255 1
6.09665584564208984 3.24547672271728516 0.555090844631195068 190 153 112 255 1
6.08306503295898438 3.21661520004272461 0.511992335319519043 190 153 112 255 1
6.09424114227294922 3.22942686080932617 0.663112759590148926 190 153 112 255 1
6.04595184326171875 3.1228783130645752 0.622335731983184814 190 153 112 255 1
6.04172182083129883 3.1180419921875 0.572669863700866699 190 153 112 255 1
6.06652212142944336 3.1263129711151123 1.11802387237548828 190 153 112 255 1
6.07256698608398438 3.12225914001464844 1.0826871395111084 190 153 112 255 1
6.17613840103149414 3.39349937438964844 0.593772590160369873 190 153 112 255 1
6.18668222427368164 3.40241026878356934 0.587207257747650146 190 153 112 255 1
6.21523761749267578 3.3969886302947998 0.633473753929138184 190 153 112 255 1
6.16753625869750977 3.35558676719665527 1.02436816692352295 190 153 112 255 1
6.19513034820556641 3.37864208221435547 1.03738141059875488 190 153 112 255 1
6.20411109924316406 3.37434220314025879 1.13357043266296387 190 153 112 255 1
6.2132420539855957 3.37688255310058594 1.04905498027801514 190 153 112 255 1
6.19503879547119141 3.40595746040344238 0.618000149726867676 190 153 112 255 1
6.18372011184692383 3.39568495750427246 0.685624241828918457 190 153 112 255 1
6.16329288482666016 3.37944459915161133 0.649460792541503906 190 153 112 255 1
6.22481584548950195 3.39699220657348633 0.700426876544952393 190 153 112 255 1
6.18605566024780273 3.36283230781555176 1.16751134395599365 190 153 112 255 1
6.18072128295898438 3.36182427406311035 1.12912821769714355 190 153 112 255 1
6.12333822250366211 3.27146697044372559 0.945755302906036377 190 153 112 255 1
6.13667058944702148 3.30537009239196777 0.960821270942687988 190 153 112 255 1
6.15481948852539062 3.33504033088684082 1.01777124404907227 190 153 112 255 1
6.04619932174682617 3.11656713485717773 0.734046697616577148 190 153 112 255 1
6.0702056884765625 3.15150165557861328 0.979466378688812256 190 153 112 255 1
6.0707240104675293 3.13537716865539551 1.02492499351501465 190 153 112 255 1
6.06050682067871094 3.1725001335144043 0.661249995231628418 190 153 112 255 1
6.13006305694580078 3.30226230621337891 0.8632354736328125 190 153 112 255 1
6.07359838485717773 3.18718266487121582 0.891478061676025391 190 153 112 255 1
6.06419086456298828 3.13364768028259277 0.932823657989501953 190 153 112 255 1
6.06249809265136719 3.13612484931945801 0.89367753267288208 190 153 112 255 1
6.06423473358154297 3.14998364448547363 0.934407055377960205 190 153 112 255 1
6.14844894409179688 3.31651520729064941 1.18958115577697754 190 153 112 255 1
6.17174243927001953 3.34392595291137695 1.2135080099105835 190 153 112 255 1
6.10295343399047852 3.20972180366516113 1.11254239082336426 190 153 112 255 1
6.09549665451049805 3.17838764190673828 1.1802217960357666 190 153 112 255 1
6.10926151275634766 3.21255803108215332 1.17395508289337158 190 153 112 255 1
6.09485483169555664 3.22957801818847656 1.15664982795715332 190 153 112 255 1
6.11348581314086914 3.27393388748168945 1.1562047004699707 190 153 112 255 1
6.09237241744995117 3.20054841041564941 1.13416469097137451 190 153 112 255 1
6.13850879669189453 3.34010100364685059 0.676915645599365234 190 153 112 255 1
6.16853713989257812 3.38189291954040527 0.709028542041778564 190 153 112 255 1
6.1141209602355957 3.28121709823608398 0.679331421852111816 190 153 112 255 1
6.11121273040771484 3.29125404357910156 0.560071825981140137 190 153 112 255 1
6.11555814743041992 3.29805803298950195 0.602892875671386719 190 153 112 255 1
6.11953067779541016 3.29864645004272461 0.633399248123168945 190 153 112 255 1
6.13593578338623047 3.34830117225646973 0.586692929267883301 190 153 112 255 1
6.14391613006591797 3.33548545837402344 0.834860384464263916 190 153 112 255 1
6.14196205139160156 3.32389116287231445 0.903642177581787109 190 153 112 255 1
6.06491374969482422 3.17062282562255859 0.810172200202941895 190 153 112 255 1
6.06200361251831055 3.14769387245178223 0.87434840202331543 190 153 112 255 1
6.05466699600219727 3.13083910942077637 0.828124821186065674 190 153 112 255 1
6.14739799499511719 3.31794476509094238 1.09087610244750977 190 153 112 255 1
6.10474252700805664 3.26135349273681641 0.616806447505950928 190 153 112 255 1
6.11399126052856445 3.27228665351867676 0.74921870231628418 190 153 112 255 1
6.08136367797851562 3.20801949501037598 0.679696559906005859 190 153 112 255 1
6.08741950988769531 3.21909570693969727 0.629158675670623779 190 153 112 255 1
6.05407571792602539 3.15499997138977051 0.68744426965713501 190 153 112 255 1
6.05520153045654297 3.15466117858886719 0.74673086404800415 190 153 112 255 1
6.13945960998535156 3.34018731117248535 0.724635660648345947 190 153 112 255 1
6.14023733139038086 3.33368587493896484 0.766854345798492432 190 153 112 255 1
6.13081932067871094 3.31450152397155762 0.790507972240447998 190 153 112 255 1
6.12488985061645508 3.31142187118530273 0.708516180515289307 190 153 112 255 1
6.08562183380126953 3.17705273628234863 1.11769068241119385 190 153 112 255 1
6.07528877258300781 3.14443135261535645 1.06439971923828125 190 153 112 255 1
6.05589437484741211 3.12071323394775391 1.15821933746337891 190 153 112 255 1
6.05553340911865234 3.11506390571594238 1.13225221633911133 190 153 112 255 1
6.07466602325439453 3.17000508308410645 0.970402657985687256 190 153 112 255 1
6.07288694381713867 3.18664073944091797 0.948369741439819336 190 153 112 255 1
6.08218860626220703 3.1815037727355957 1.01844561100006104 190 153 112 255 1
6.18191337585449219 3.36534976959228516 1.09942138195037842 190 153 112 255 1
6.1238865852355957 3.28601598739624023 1.23849797248840332 190 153 112 255 1
6.10663890838623047 3.23155951499938965 1.18902850151062012 190 153 112 255 1
6.11057519912719727 3.24915075302124023 1.17648148536682129 190 153 112 255 1
6.12213468551635742 3.21267032623291016 1.19496834278106689 190 153 112 255 1
6.1237940788269043 3.28908681869506836 1.1974714994430542 190 153 112 255 1
6.06155920028686523 3.17999982833862305 0.57500004768371582 190 153 112 255 1
6.05994081497192383 3.17499995231628418 0.625 190 153 112 255 1
6.04846286773681641 3.14229941368103027 0.606586813926696777 190 153 112 255 1
6.03673839569091797 3.09682011604309082 0.6589851975440979 190 153 112 255 1
6.13025856018066406 3.29501152038574219 1.18527543544769287 190 153 112 255 1
6.1489410400390625 3.31481528282165527 1.13735306262969971 190 153 112 255 1
6.12364673614501953 3.27674078941345215 1.13661682605743408 190 153 112 255 1
6.21523332595825195 3.39312624931335449 0.731789827346801758 190 153 112 255 1
6.16086339950561523 3.3701779842376709 0.761587440967559814 190 153 112 255 1
6.19499969482421875 3.39223289489746094 0.816249966621398926 190 153 112 255 1
6.19443893432617188 3.39782404899597168 0.744093060493469238 190 153 112 255 1
6.21499967575073242 3.38897943496704102 0.803124964237213135 190 153 112 255 1
6.22815942764282227 3.39345645904541016 0.79609304666519165 190 153 112 255 1
6.15873241424560547 3.358673095703125 0.843992352485656738 190 153 112 255 1
6.18099880218505859 3.38519120216369629 0.812950849533081055 190 153 112 255 1
6.21562385559082031 3.38696122169494629 0.88991081714630127 190 153 112 255 1
6.08128976821899414 3.18094587326049805 1.14759635925292969 190 153 112 255 1
6.1733403205871582 3.37518000602722168 0.875696241855621338 190 153 112 255 1
6.17866325378417969 3.37460803985595703 0.931045293807983398 190 153 112 255 1
6.21540307998657227 3.37993812561035156 0.968006253242492676 190 153 112 255 1
6.16614770889282227 3.35861539840698242 0.95722043514251709 190 153 112 255 1
6.13388442993164062 3.28719139099121094 1.10267126560211182 190 153 112 255 1
6.09348726272583008 3.19165301322937012 1.05520498752593994 190 153 112 255 1
6.10916614532470703 3.22571420669555664 1.07952320575714111 190 153 112 255 1
6.09248828887939453 3.22814202308654785 1.05241262912750244 190 153 112 255 1
6.0718379020690918 3.19223952293395996 0.749107062816619873 190 153 112 255 1
6.09419727325439453 3.22582364082336426 0.747004508972167969 190 153 112 255 1
6.09625530242919922 3.22749996185302734 0.817499995231628418 190 153 112 255 1
6.19483470916748047 3.38510847091674805 0.93184274435043335 190 153 112 255 1
6.18515110015869141 3.37499332427978516 1.00898838043212891 190 153 112 255 1
6.10608100891113281 3.24555373191833496 0.838083446025848389 190 153 112 255 1
6.07479572296142578 3.19506287574768066 0.789132595062255859 190 153 112 255 1
6.09959888458251953 3.22539114952087402 0.89412999153137207 190 153 112 255 1
6.07301998138427734 3.1850893497467041 0.85763084888458252 190 153 112 255 1
6.139404296875 3.30322074890136719 1.05112934112548828 190 153 112 255 1
6.11899852752685547 3.26839542388916016 0.892197251319885254 190 153 112 255 1
6.09181118011474609 3.22773885726928711 0.936653792858123779 190 153 112 255 1
6.10242557525634766 3.24092221260070801 0.960052430629730225 190 153 112 255 1
6.09049558639526367 3.22957992553710938 0.983054578304290771 190 153 112 255 1
6.09461212158203125 3.23852348327636719 1.02548742294311523 190 153 112 255 1
6.12233495712280273 3.26777052879333496 1.03712165355682373 190 153 112 255 1
6.08023738861083984 3.20696687698364258 1.00485038757324219 190 153 112 255 1
6.12751579284667969 3.27893853187561035 0.99036097526550293 190 153 112 255 1
6.10140085220336914 3.24222230911254883 0.999975800514221191 190 153 112 255 1
6.2362208366394043 3.4292900562286377 0.315669655799865723 190 153 112 255 1
6.24242496490478516 3.47979593276977539 0.190126076340675354 190 153 112 255 1
6.23960256576538086 3.47338461875915527 0.080369703471660614 190 153 112 255 1
6.25333929061889648 3.43928265571594238 0.0410042628645896912 190 153 112 255 1
6.24527931213378906 3.47662210464477539 0.050591006875038147 190 153 112 255 1
6.23998403549194336 3.44292950630187988 0.057622324675321579 190 153 112 255 1
6.22221851348876953 3.41205883026123047 0.0413414351642131805 190 153 112 255 1
6.24705362319946289 3.47625994682312012 0.461475521326065063 190 153 112 255 1
6.24884939193725586 3.47006440162658691 0.520416498184204102 190 153 112 255 1
6.24249267578125 3.48395252227783203 0.553127527236938477 190 153 112 255 1
6.23882150650024414 3.44996356964111328 0.16219349205493927 190 153 112 255 1
6.23994302749633789 3.46884417533874512 0.118015661835670471 190 153 112 255 1
6.24876022338867188 3.47463798522949219 0.344335943460464478 190 153 112 255 1
6.25545167922973633 3.47768998146057129 0.360013395547866821 190 153 112 255 1
6.24715471267700195 3.48402214050292969 0.368840008974075317 190 153 112 255 1
6.23918914794921875 3.4947359561920166 0.402453720569610596 190 153 112 255 1
6.23744058609008789 3.42635297775268555 0.466731518507003784 190 153 112 255 1
6.23151731491088867 3.43515324592590332 0.116094000637531281 190 153 112 255 1
6.23382282257080078 3.43713617324829102 0.210818126797676086 190 153 112 255 1
6.23676490783691406 3.42435526847839355 0.401668369770050049 190 153 112 255 1
6.2427978515625 3.45236110687255859 0.393431007862091064 190 153 112 255 1
6.25165224075317383 3.47571086883544922 0.387150228023529053 190 153 112 255 1
6.23919534683227539 3.49563431739807129 0.469609469175338745 190 153 112 255 1
6.24748086929321289 3.47775506973266602 0.294005781412124634 190 153 112 255 1
6.24108314514160156 3.45613598823547363 0.313944220542907715 190 153 112 255 1
6.24958896636962891 3.47596359252929688 0.224866122007369995 190 153 112 255 1
6.23640871047973633 3.50438880920410156 0.329173177480697632 190 153 112 255 1
6.23835897445678711 3.50496983528137207 0.258275002241134644 190 153 112 255 1
6.2321629524230957 3.43572092056274414 0.0917602404952049255 190 153 112 255 1
6.23556709289550781 3.441680908203125 0.245119616389274597 190 153 112 255 1
6.23783159255981445 3.41452431678771973 0.569430232048034668 190 153 112 255 1
6.24122953414916992 3.48459267616271973 0.649139046669006348 190 153 112 255 1
6.24944829940795898 3.46558737754821777 0.587966084480285645 190 153 112 255 1
6.23695755004882812 3.41558361053466797 0.616486668586730957 190 153 112 255 1
6.24257993698120117 3.4432220458984375 0.564413905143737793 190 153 112 255 1
6.24432468414306641 3.48468017578125 0.610437154769897461 190 153 112 255 1
6.24855852127075195 3.46416425704956055 0.645308613777160645 190 153 112 255 1
6.23082304000854492 3.51969242095947266 0.11727161705493927 190 153 112 255 1
6.23382568359375 3.51568508148193359 0.155992507934570312 190 153 112 255 1
6.2543182373046875 3.54525065422058105 0.250095725059509277 190 153 112 255 1
6.24499130249023438 3.51922750473022461 0.262435287237167358 190 153 112 255 1
6.23299407958984375 3.52077531814575195 0.0506729595363140106 190 153 112 255 1
6.26215648651123047 3.54403376579284668 0.337753951549530029 190 153 112 255 1
6.26800394058227539 3.54435324668884277 0.413299262523651123 190 153 112 255 1
6.26800155639648438 3.54310774803161621 0.453445345163345337 190 153 112 255 1
6.25058269500732422 3.54528951644897461 0.0665813758969306946 190 153 112 255 1
6.24200248718261719 3.54406332969665527 0.0878988280892372131 190 153 112 255 1
6.24280548095703125 3.54511189460754395 0.134730264544487 190 153 112 255 1
6.24819660186767578 3.54432034492492676 0.157462984323501587 190 153 112 255 1
6.23461580276489258 3.50881004333496094 0.223960474133491516 190 153 112 255 1
6.24244928359985352 3.5173952579498291 0.234746873378753662 190 153 112 255 1
6.28430080413818359 3.46397995948791504 1.44461750984191895 190 153 112 255 1
6.25210428237915039 3.48655319213867188 1.41683387756347656 190 153 112 255 1
6.28919553756713867 3.47250580787658691 1.48268663883209229 190 153 112 255 1
6.26710939407348633 3.50400567054748535 1.46396923065185547 190 153 112 255 1
6.27258825302124023 3.48169636726379395 1.47631728649139404 190 153 112 255 1
6.24827241897583008 3.45652985572814941 1.3034358024597168 190 153 112 255 1
6.29520416259765625 3.47376871109008789 1.3127976655960083 190 153 112 255 1
6.25894689559936523 3.45010495185852051 1.25935781002044678 190 153 112 255 1
6.26468944549560547 3.45226573944091797 1.33512961864471436 190 153 112 255 1
6.25408029556274414 3.45065546035766602 1.33592844009399414 190 153 112 255 1
6.24136066436767578 3.47833585739135742 1.32810485363006592 190 153 112 255 1
6.24881696701049805 3.48741292953491211 1.30552482604980469 190 153 112 255 1
6.23877906799316406 3.50154805183410645 1.33305644989013672 190 153 112 255 1
6.30773162841796875 3.48399209976196289 1.31137990951538086 190 153 112 255 1
6.25269651412963867 3.45990729331970215 1.08030903339385986 190 153 112 255 1
6.25519561767578125 3.4794156551361084 1.05976569652557373 190 153 112 255 1
6.25251960754394531 3.47417569160461426 1.02566266059875488 190 153 112 255 1
6.28817129135131836 3.51570439338684082 1.0846855640411377 190 153 112 255 1
6.27873134613037109 3.49691009521484375 1.07516944408416748 190 153 112 255 1
6.26453161239624023 3.4533085823059082 1.40820610523223877 190 153 112 255 1
6.27083349227905273 3.46272802352905273 1.43793356418609619 190 153 112 255 1
6.28142738342285156 3.46201920509338379 1.40676498413085938 190 153 112 255 1
6.24610042572021484 3.50385189056396484 1.36859643459320068 190 153 112 255 1
6.2676701545715332 3.49658918380737305 0.84515070915222168 190 153 112 255 1
6.24714803695678711 3.48541760444641113 0.834458291530609131 190 153 112 255 1
6.26639080047607422 3.50236010551452637 0.777443170547485352 190 153 112 255 1
6.27421331405639648 3.49672651290893555 0.992423295974731445 190 153 112 255 1
6.2565913200378418 3.45920491218566895 1.00844144821166992 190 153 112 255 1
6.25805330276489258 3.48377346992492676 0.996263325214385986 190 153 112 255 1
6.27613353729248047 3.48953461647033691 1.04077672958374023 190 153 112 255 1
6.26524019241333008 3.50296759605407715 0.730904877185821533 190 153 112 255 1
6.33579158782958984 3.4904029369354248 1.32164740562438965 190 153 112 255 1
6.34446811676025391 3.49589896202087402 1.3850405216217041 190 153 112 255 1
6.33406639099121094 3.5019841194152832 1.29894506931304932 190 153 112 255 1
6.31750345230102539 3.47777771949768066 1.29791796207427979 190 153 112 255 1
