ply
format ascii 1.0
element vertex 328
property float x
property float y
property float z
property uchar red
property uchar green
property uchar blue
property uchar alpha
property uint label
end_header
4.86909008026123047 6.12051486968994141 0.774294257164001465 255 0 246 218 38
4.87331867218017578 6.13582611083984375 0.784948468208312988 255 0 246 218 38
4.84898471832275391 6.14274120330810547 0.730355262756347656 255 0 246 218 38
4.82284784317016602 6.13773584365844727 0.768128871917724609 255 0 246 218 38
5.01610708236694336 6.2034296989440918 0.785255670547485352 255 0 246 218 38
4.89975643157958984 6.44548654556274414 0.788046061992645264 255 0 246 218 38
5.02826642990112305 6.32811212539672852 0.791969478130340576 255 0 246 218 38
4.99559831619262695 6.39289999008178711 0.794610857963562012 255 0 246 218 38
4.98569059371948242 6.33721733093261719 0.792714238166809082 255 0 246 218 38
4.84666728973388672 6.36786413192749023 0.792622566223144531 255 0 246 218 38
4.79321813583374023 6.33958292007446289 0.794183671474456787 255 0 246 218 38
4.86054706573486328 6.40784931182861328 0.795416712760925293 255 0 246 218 38
4.91635227203369141 6.42063379287719727 0.795993447303771973 255 0 246 218 38
4.9347681999206543 6.14541339874267578 0.785623490810394287 255 0 246 218 38
4.93541765213012695 6.18239498138427734 0.788846850395202637 255 0 246 218 38
4.94781208038330078 6.28000020980834961 0.790616035461425781 255 0 246 218 38
4.97877025604248047 6.16999912261962891 0.787101805210113525 255 0 246 218 38
5.01953697204589844 6.24778318405151367 0.789788246154785156 255 0 246 218 38
4.99673080444335938 6.40881156921386719 0.779610216617584229 255 0 246 218 38
4.94713687896728516 6.43552064895629883 0.783796787261962891 255 0 246 218 38
5.02372121810913086 6.37022781372070312 0.78892815113067627 255 0 246 218 38
4.97795534133911133 6.41655540466308594 0.787530362606048584 255 0 246 218 38
4.91299676895141602 6.3707280158996582 0.792839288711547852 255 0 246 218 38
4.82407236099243164 6.14224672317504883 0.786280035972595215 255 0 246 218 38
4.81756973266601562 6.40235757827758789 0.792030632495880127 255 0 246 218 38
4.86708974838256836 6.43873214721679688 0.788661658763885498 255 0 246 218 38
4.87516450881958008 6.45951604843139648 0.783838570117950439 255 0 246 218 38
4.81432533264160156 6.43582439422607422 0.784889578819274902 255 0 246 218 38
4.86082839965820312 6.225555419921875 0.789118111133575439 255 0 246 218 38
4.88000011444091797 6.25499963760375977 0.789361953735351562 255 0 246 218 38
4.79184961318969727 6.2814335823059082 0.790523231029510498 255 0 246 218 38
4.89925813674926758 6.13045501708984375 0.776149392127990723 255 0 246 218 38
5.04445743560791016 6.26428985595703125 0.784737825393676758 255 0 246 218 38
4.75641059875488281 6.20188379287719727 0.782468676567077637 255 0 246 218 38
4.78481245040893555 6.18264007568359375 0.790915012359619141 255 0 246 218 38
4.77445125579833984 6.21498775482177734 0.790906846523284912 255 0 246 218 38
4.79775857925415039 6.19850254058837891 0.787509024143218994 255 0 246 218 38
4.78586626052856445 6.16022396087646484 0.769849181175231934 255 0 246 218 38
4.7460331916809082 6.333404541015625 0.786103785037994385 255 0 246 218 38
4.73826217651367188 6.36469316482543945 0.78071439266204834 255 0 246 218 38
4.76114177703857422 6.36879062652587891 0.785799086093902588 255 0 246 218 38
4.78591823577880859 6.40476608276367188 0.787241816520690918 255 0 246 218 38
4.75183629989624023 6.2813267707824707 0.788982570171356201 255 0 246 218 38
4.72479391098022461 6.33139371871948242 0.779960811138153076 255 0 246 218 38
4.77537631988525391 6.29799795150756836 0.794724702835083008 255 0 246 218 38
4.74252891540527344 6.23676109313964844 0.784866988658905029 255 0 246 218 38
4.72908878326416016 6.26494979858398438 0.780637562274932861 255 0 246 218 38
4.75346851348876953 6.39418411254882812 0.780467391014099121 255 0 246 218 38
4.78286981582641602 6.41320991516113281 0.78414607048034668 255 0 246 218 38
4.98270797729492188 6.33231973648071289 0.522010207176208496 255 0 246 218 38
4.91429281234741211 6.39201974868774414 0.470042288303375244 255 0 246 218 38
4.88780450820922852 6.37299585342407227 0.48321843147277832 255 0 246 218 38
4.88553428649902344 6.39990997314453125 0.446463793516159058 255 0 246 218 38
4.73389339447021484 6.41513633728027344 0.467719197273254395 255 0 246 218 38
4.85307788848876953 6.40620088577270508 0.43437841534614563 255 0 246 218 38
4.81633138656616211 6.41805458068847656 0.444317787885665894 255 0 246 218 38
4.81898689270019531 6.42018032073974609 0.456926733255386353 255 0 246 218 38
4.87343168258666992 6.40578222274780273 0.431770980358123779 255 0 246 218 38
4.76578807830810547 6.41219091415405273 0.466450989246368408 255 0 246 218 38
4.7614903450012207 6.42891168594360352 0.44231879711151123 255 0 246 218 38
4.80206203460693359 6.40807628631591797 0.470681667327880859 255 0 246 218 38
4.76054000854492188 6.41281652450561523 0.437317997217178345 255 0 246 218 38
4.86570453643798828 6.41696500778198242 0.48083573579788208 255 0 246 218 38
4.89337682723999023 6.42315292358398438 0.450842231512069702 255 0 246 218 38
4.74658393859863281 6.40254306793212891 0.344054132699966431 255 0 246 218 38
4.7451939582824707 6.40506982803344727 0.394866079092025757 255 0 246 218 38
4.77734470367431641 6.36963129043579102 0.507375538349151611 255 0 246 218 38
4.78745412826538086 6.35375404357910156 0.506580710411071777 255 0 246 218 38
4.77260398864746094 6.37448978424072266 0.558660387992858887 255 0 246 218 38
4.79905271530151367 6.36556816101074219 0.489277839660644531 255 0 246 218 38
4.75263309478759766 6.39476251602172852 0.5101967453956604 255 0 246 218 38
4.75032567977905273 6.32789373397827148 0.526674807071685791 255 0 246 218 38
4.76811408996582031 6.39094066619873047 0.480568259954452515 255 0 246 218 38
4.78765249252319336 6.34376430511474609 0.490521162748336792 255 0 246 218 38
4.78654766082763672 6.32621097564697266 0.518696308135986328 255 0 246 218 38
4.79261589050292969 6.29375362396240234 0.523867309093475342 255 0 246 218 38
4.76522111892700195 6.31369543075561523 0.314230233430862427 255 0 246 218 38
4.77578449249267578 6.36680746078491211 0.309777110815048218 255 0 246 218 38
4.74434185028076172 6.3456120491027832 0.30926203727722168 255 0 246 218 38
4.76058149337768555 6.38601255416870117 0.297203928232192993 255 0 246 218 38
4.76104450225830078 6.38759040832519531 0.39465901255607605 255 0 246 218 38
4.75474786758422852 6.39506673812866211 0.426374047994613647 255 0 246 218 38
4.77655220031738281 6.37012720108032227 0.444962859153747559 255 0 246 218 38
4.78138303756713867 6.35399484634399414 0.416886478662490845 255 0 246 218 38
4.78464698791503906 6.35490942001342773 0.454045683145523071 255 0 246 218 38
4.79576396942138672 6.37894964218139648 0.461137294769287109 255 0 246 218 38
4.79940700531005859 6.40071582794189453 0.451156258583068848 255 0 246 218 38
4.7697901725769043 6.32040977478027344 0.468988627195358276 255 0 246 218 38
4.73025131225585938 6.34474372863769531 0.416630208492279053 255 0 246 218 38
4.7640528678894043 6.33161354064941406 0.430050492286682129 255 0 246 218 38
4.73704671859741211 6.33652305603027344 0.446634203195571899 255 0 246 218 38
4.75256824493408203 6.32457971572875977 0.464278250932693481 255 0 246 218 38
4.85161209106445312 6.3718419075012207 0.484664648771286011 255 0 246 218 38
4.86200475692749023 6.38280487060546875 0.484308481216430664 255 0 246 218 38
4.86342239379882812 6.36096811294555664 0.486211419105529785 255 0 246 218 38
4.82762336730957031 6.37619590759277344 0.480617374181747437 255 0 246 218 38
4.7387537956237793 6.40403556823730469 0.296325564384460449 255 0 246 218 38
4.73442792892456055 6.40962839126586914 0.278017342090606689 255 0 246 218 38
4.83434391021728516 6.39705181121826172 0.433156132698059082 255 0 246 218 38
4.84221935272216797 6.36510038375854492 0.473654329776763916 255 0 246 218 38
4.8547663688659668 6.37306785583496094 0.461481004953384399 255 0 246 218 38
4.80807018280029297 6.3651738166809082 0.475881040096282959 255 0 246 218 38
4.72869777679443359 6.34744405746459961 0.342168182134628296 255 0 246 218 38
4.78336000442504883 6.34830999374389648 0.339360505342483521 255 0 246 218 38
4.75742912292480469 6.33310937881469727 0.37969595193862915 255 0 246 218 38
4.7793116569519043 6.35713338851928711 0.378907144069671631 255 0 246 218 38
4.7700037956237793 6.33292579650878906 0.341205745935440063 255 0 246 218 38
4.94457912445068359 6.39343118667602539 0.511674404144287109 255 0 246 218 38
4.91671276092529297 6.41049623489379883 0.502412796020507812 255 0 246 218 38
4.95389413833618164 6.35506439208984375 0.503576159477233887 255 0 246 218 38
4.97013616561889648 6.38334131240844727 0.520761787891387939 255 0 246 218 38
4.8859410285949707 6.38179397583007812 0.493508368730545044 255 0 246 218 38
4.93039941787719727 6.3751530647277832 0.490675061941146851 255 0 246 218 38
4.90939140319824219 6.38535451889038086 0.485264182090759277 255 0 246 218 38
4.73908662796020508 6.33081865310668945 0.594902336597442627 255 0 246 218 38
4.79134035110473633 6.33252239227294922 0.598197996616363525 255 0 246 218 38
4.79126405715942383 6.34892177581787109 0.566648602485656738 255 0 246 218 38
4.74835824966430664 6.32673835754394531 0.563792407512664795 255 0 246 218 38
4.77968597412109375 6.3285212516784668 0.548572301864624023 255 0 246 218 38
4.7777714729309082 6.31329965591430664 0.636159777641296387 255 0 246 218 38
4.74807071685791016 6.3294072151184082 0.633866846561431885 255 0 246 218 38
4.75362777709960938 6.3940424919128418 0.60239797830581665 255 0 246 218 38
4.775390625 6.31570577621459961 0.580427885055541992 255 0 246 218 38
4.843475341796875 6.39423084259033203 0.280285954475402832 255 0 246 218 38
4.94275665283203125 6.39246606826782227 0.468178898096084595 255 0 246 218 38
4.98904037475585938 6.47445535659790039 0.0988275259733200073 255 0 246 218 38
4.97276115417480469 6.4283905029296875 0.381472527980804443 255 0 246 218 38
4.97579717636108398 6.43744659423828125 0.317629069089889526 255 0 246 218 38
4.98604059219360352 6.46671867370605469 0.339891016483306885 255 0 246 218 38
4.99380159378051758 6.45009469985961914 0.339309722185134888 255 0 246 218 38
4.96064949035644531 6.42774486541748047 0.370504200458526611 255 0 246 218 38
5.02602481842041016 6.35281944274902344 0.321530073881149292 255 0 246 218 38
4.9992213249206543 6.35097169876098633 0.295704632997512817 255 0 246 218 38
5.01569080352783203 6.33061933517456055 0.305372893810272217 255 0 246 218 38
4.85468769073486328 6.47140693664550781 0.444692641496658325 255 0 246 218 38
4.86204624176025391 6.43846702575683594 0.436058223247528076 255 0 246 218 38
4.96196174621582031 6.48211574554443359 0.404611974954605103 255 0 246 218 38
4.82062959671020508 6.45727825164794922 0.232925891876220703 255 0 246 218 38
4.7997283935546875 6.44054841995239258 0.257155925035476685 255 0 246 218 38
4.83394384384155273 6.42134714126586914 0.263050436973571777 255 0 246 218 38
4.82988452911376953 6.4408721923828125 0.255834817886352539 255 0 246 218 38
4.86602115631103516 6.42640066146850586 0.282109677791595459 255 0 246 218 38
4.78525018692016602 6.41322612762451172 0.277446866035461426 255 0 246 218 38
4.87819433212280273 6.47435379028320312 0.456938624382019043 255 0 246 218 38
4.96200275421142578 6.41855335235595703 0.415113359689712524 255 0 246 218 38
4.94210052490234375 6.42007255554199219 0.449603497982025146 255 0 246 218 38
4.89224052429199219 6.44710254669189453 0.44141089916229248 255 0 246 218 38
4.89432430267333984 6.46888017654418945 0.437987923622131348 255 0 246 218 38
4.93615436553955078 6.49903345108032227 0.10960368812084198 255 0 246 218 38
5.00854873657226562 6.50044059753417969 0.116330280900001526 255 0 246 218 38
5.01190471649169922 6.48005247116088867 0.0968523547053337097 255 0 246 218 38
5.00215482711791992 6.52169084548950195 0.102168485522270203 255 0 246 218 38
4.97840738296508789 6.47682619094848633 0.146386682987213135 255 0 246 218 38
4.9826502799987793 6.52434349060058594 0.142909437417984009 255 0 246 218 38
5.03721237182617188 6.31332206726074219 0.323526829481124878 255 0 246 218 38
5.00082921981811523 6.45890235900878906 0.288582712411880493 255 0 246 218 38
4.98704004287719727 6.44568300247192383 0.24288824200630188 255 0 246 218 38
4.99420404434204102 6.47217750549316406 0.29565894603729248 255 0 246 218 38
4.9930872917175293 6.38976812362670898 0.312971919775009155 255 0 246 218 38
4.99638748168945312 6.42309999465942383 0.314111173152923584 255 0 246 218 38
4.98495149612426758 6.44589853286743164 0.436782985925674438 255 0 246 218 38
4.96009159088134766 6.46467447280883789 0.472144663333892822 255 0 246 218 38
4.98704051971435547 6.44156312942504883 0.398522436618804932 255 0 246 218 38
4.97997570037841797 6.4587712287902832 0.399073541164398193 255 0 246 218 38
4.96898365020751953 6.46601057052612305 0.440038979053497314 255 0 246 218 38
4.96828413009643555 6.41393470764160156 0.467733979225158691 255 0 246 218 38
4.96289968490600586 6.49411487579345703 0.33432471752166748 255 0 246 218 38
4.95169162750244141 6.4977726936340332 0.369285881519317627 255 0 246 218 38
4.99795866012573242 6.47680234909057617 0.250550836324691772 255 0 246 218 38
4.96971845626831055 6.51241540908813477 0.233692780137062073 255 0 246 218 38
4.97429180145263672 6.49633550643920898 0.2871132493019104 255 0 246 218 38
4.77283477783203125 6.41105461120605469 0.300537765026092529 255 0 246 218 38
4.74257373809814453 6.43077421188354492 0.280323237180709839 255 0 246 218 38
4.76222991943359375 6.42547893524169922 0.268510580062866211 255 0 246 218 38
4.89527463912963867 6.4087376594543457 0.290810227394104004 255 0 246 218 38
4.94585466384887695 6.42435741424560547 0.287482470273971558 255 0 246 218 38
4.89708471298217773 6.44236373901367188 0.281523525714874268 255 0 246 218 38
4.92225027084350586 6.43394565582275391 0.290557205677032471 255 0 246 218 38
4.96120262145996094 6.43829345703125 0.32926410436630249 255 0 246 218 38
4.93695211410522461 6.45423507690429688 0.307845532894134521 255 0 246 218 38
4.91847991943359375 6.46108007431030273 0.285559386014938354 255 0 246 218 38
5.00625896453857422 6.48152542114257812 0.203282579779624939 255 0 246 218 38
5.00539207458496094 6.48841476440429688 0.16081218421459198 255 0 246 218 38
4.98651504516601562 6.51441049575805664 0.166305452585220337 255 0 246 218 38
4.97650337219238281 6.51663446426391602 0.191281646490097046 255 0 246 218 38
4.98167133331298828 6.43118858337402344 0.464303016662597656 255 0 246 218 38
4.97905445098876953 6.43177080154418945 0.50934523344039917 255 0 246 218 38
4.95312976837158203 6.46006536483764648 0.52983015775680542 255 0 246 218 38
4.76242685317993164 6.46176481246948242 0.237097486853599548 255 0 246 218 38
4.98769855499267578 6.4526982307434082 0.213475242257118225 255 0 246 218 38
5.00366878509521484 6.46570062637329102 0.222465470433235168 255 0 246 218 38
4.99361562728881836 6.4697718620300293 0.167012810707092285 255 0 246 218 38
5.00714015960693359 6.47886514663696289 0.145794868469238281 255 0 246 218 38
4.96001243591308594 6.45963335037231445 0.223979741334915161 255 0 246 218 38
4.93591690063476562 6.43512582778930664 0.395134240388870239 255 0 246 218 38
4.88177680969238281 6.45741796493530273 0.535377085208892822 255 0 246 218 38
4.88717174530029297 6.45496845245361328 0.487766236066818237 255 0 246 218 38
4.93701505661010742 6.47771596908569336 0.534551501274108887 255 0 246 218 38
4.90053462982177734 6.43313217163085938 0.531884312629699707 255 0 246 218 38
4.93485069274902344 6.41064023971557617 0.523498952388763428 255 0 246 218 38
4.89414787292480469 6.46576690673828125 0.471608132123947144 255 0 246 218 38
4.89269685745239258 6.44373130798339844 0.501066923141479492 255 0 246 218 38
4.92299175262451172 6.51722860336303711 0.122484676539897919 255 0 246 218 38
4.95341777801513672 6.48340749740600586 0.160247236490249634 255 0 246 218 38
4.94405651092529297 6.49521207809448242 0.13791540265083313 255 0 246 218 38
4.93002223968505859 6.50493764877319336 0.148246362805366516 255 0 246 218 38
4.92639350891113281 6.38244152069091797 0.645057797431945801 255 0 246 218 38
4.93748140335083008 6.37937307357788086 0.688406646251678467 255 0 246 218 38
4.95490694046020508 6.39096450805664062 0.688651919364929199 255 0 246 218 38
4.96513557434082031 6.40321016311645508 0.638970434665679932 255 0 246 218 38
4.91100406646728516 6.40407133102416992 0.680960655212402344 255 0 246 218 38
4.86913537979125977 6.44597148895263672 0.649968624114990234 255 0 246 218 38
4.95007658004760742 6.44798612594604492 0.596941649913787842 255 0 246 218 38
4.89193105697631836 6.47186851501464844 0.618146777153015137 255 0 246 218 38
4.96739339828491211 6.41470766067504883 0.635056078433990479 255 0 246 218 38
4.94683313369750977 6.4643707275390625 0.55488276481628418 255 0 246 218 38
4.9391474723815918 6.39970064163208008 0.580598533153533936 255 0 246 218 38
4.94052362442016602 6.44509601593017578 0.647558629512786865 255 0 246 218 38
4.89493989944458008 6.41619205474853516 0.610118627548217773 255 0 246 218 38
4.93348121643066406 6.45992517471313477 0.602412164211273193 255 0 246 218 38
4.91469383239746094 6.39767313003540039 0.612844109535217285 255 0 246 218 38
4.90315151214599609 6.4257049560546875 0.556694149971008301 255 0 246 218 38
4.95070886611938477 6.39820098876953125 0.584880411624908447 255 0 246 218 38
4.94364404678344727 6.38944339752197266 0.632582247257232666 255 0 246 218 38
4.9021148681640625 6.39963006973266602 0.640298128128051758 255 0 246 218 38
4.90936470031738281 6.47815513610839844 0.641228616237640381 255 0 246 218 38
4.95857334136962891 6.40479564666748047 0.700983941555023193 255 0 246 218 38
4.9415440559387207 6.43023061752319336 0.685561478137969971 255 0 246 218 38
4.91843938827514648 6.43577051162719727 0.691505372524261475 255 0 246 218 38
4.88917207717895508 6.4696955680847168 0.662964761257171631 255 0 246 218 38
4.92451715469360352 6.44418811798095703 0.6845664381980896 255 0 246 218 38
4.96504688262939453 6.40528678894042969 0.538706660270690918 255 0 246 218 38
4.96953582763671875 6.42812776565551758 0.57436603307723999 255 0 246 218 38
4.96858882904052734 6.4138031005859375 0.575718939304351807 255 0 246 218 38
4.87434291839599609 6.44557714462280273 0.584809958934783936 255 0 246 218 38
4.90754270553588867 6.48070049285888672 0.596340835094451904 255 0 246 218 38
4.92584466934204102 6.47965669631958008 0.579636693000793457 255 0 246 218 38
4.95589494705200195 6.57888221740722656 0.0972290560603141785 255 0 246 218 38
4.96237468719482422 6.5556640625 0.119712211191654205 255 0 246 218 38
4.98418140411376953 6.37451028823852539 0.494704753160476685 255 0 246 218 38
4.99791336059570312 6.30637645721435547 0.546309292316436768 255 0 246 218 38
4.9930419921875 6.35611963272094727 0.521412670612335205 255 0 246 218 38
4.99717044830322266 6.34326553344726562 0.510552644729614258 255 0 246 218 38
4.97803544998168945 6.28750133514404297 0.456323862075805664 255 0 246 218 38
5.03552579879760742 6.27389335632324219 0.45649641752243042 255 0 246 218 38
5.01271867752075195 6.29491233825683594 0.415926694869995117 255 0 246 218 38
4.99614429473876953 6.28754329681396484 0.439768880605697632 255 0 246 218 38
5.01664829254150391 6.29229307174682617 0.450785309076309204 255 0 246 218 38
5.11942052841186523 6.2211298942565918 0.132083088159561157 255 0 246 218 38
5.12395334243774414 6.20407009124755859 0.131311893463134766 255 0 246 218 38
5.01914834976196289 6.385009765625 0.313237309455871582 255 0 246 218 38
5.10361289978027344 6.21652555465698242 0.26456683874130249 255 0 246 218 38
5.05877065658569336 6.23728036880493164 0.524998903274536133 255 0 246 218 38
5.07517433166503906 6.22709369659423828 0.445152223110198975 255 0 246 218 38
5.0714879035949707 6.23952245712280273 0.414179235696792603 255 0 246 218 38
5.11083650588989258 6.21896982192993164 0.217314481735229492 255 0 246 218 38
5.02931022644042969 6.28506708145141602 0.434235215187072754 255 0 246 218 38
5.06189680099487305 6.24964570999145508 0.445190638303756714 255 0 246 218 38
5.03957605361938477 6.27706718444824219 0.40901908278465271 255 0 246 218 38
5.0024256706237793 6.38943052291870117 0.279515594244003296 255 0 246 218 38
5.02536964416503906 6.34057378768920898 0.28800162672996521 255 0 246 218 38
5.06156826019287109 6.22250270843505859 0.512709558010101318 255 0 246 218 38
5.04049873352050781 6.25077438354492188 0.144088298082351685 255 0 246 218 38
5.08439207077026367 6.26045942306518555 0.1469440758228302 255 0 246 218 38
5.05868101119995117 6.27649259567260742 0.122947290539741516 255 0 246 218 38
5.05483436584472656 6.27637386322021484 0.161794647574424744 255 0 246 218 38
5.0521388053894043 6.27962970733642578 0.209915637969970703 255 0 246 218 38
5.04274368286132812 6.27285575866699219 0.201180383563041687 255 0 246 218 38
5.07724618911743164 6.25961112976074219 0.212499991059303284 255 0 246 218 38
5.06496334075927734 6.27506065368652344 0.170630231499671936 255 0 246 218 38
5.02304840087890625 6.28792572021484375 0.323965698480606079 255 0 246 218 38
5.03910446166992188 6.28334188461303711 0.353159427642822266 255 0 246 218 38
5.01441192626953125 6.28834295272827148 0.386996954679489136 255 0 246 218 38
4.97652816772460938 6.30383634567260742 0.467976599931716919 255 0 246 218 38
5.00443887710571289 6.41123533248901367 0.280550271272659302 255 0 246 218 38
4.99498128890991211 6.42534875869750977 0.265127211809158325 255 0 246 218 38
5.04674577713012695 6.31195068359375 0.320924460887908936 255 0 246 218 38
5.07110595703125 6.26200246810913086 0.355863600969314575 255 0 246 218 38
5.08348846435546875 6.23137283325195312 0.385774761438369751 255 0 246 218 38
5.02672672271728516 6.28997373580932617 0.381079256534576416 255 0 246 218 38
4.97114276885986328 6.39413833618164062 0.479336053133010864 255 0 246 218 38
4.9786224365234375 6.40305423736572266 0.512160241603851318 255 0 246 218 38
5.08958101272583008 6.23064470291137695 0.335174024105072021 255 0 246 218 38
5.02793312072753906 6.27086019515991211 0.213673993945121765 255 0 246 218 38
5.02546405792236328 6.27630519866943359 0.225284531712532043 255 0 246 218 38
5.08612394332885742 6.24275684356689453 0.268260598182678223 255 0 246 218 38
5.05289983749389648 6.27813911437988281 0.263040244579315186 255 0 246 218 38
5.03752803802490234 6.28646945953369141 0.255103021860122681 255 0 246 218 38
5.08522272109985352 6.23871564865112305 0.315742433071136475 255 0 246 218 38
5.06240701675415039 6.27030229568481445 0.296914815902709961 255 0 246 218 38
5.040618896484375 6.2635345458984375 0.503598392009735107 255 0 246 218 38
5.01225471496582031 6.2967681884765625 0.473146617412567139 255 0 246 218 38
5.02039480209350586 6.29629230499267578 0.549201726913452148 255 0 246 218 38
5.02788543701171875 6.2911219596862793 0.525335431098937988 255 0 246 218 38
4.98576498031616211 6.29684352874755859 0.525302350521087646 255 0 246 218 38
5.01329469680786133 6.31522655487060547 0.522196292877197266 255 0 246 218 38
5.05208921432495117 6.22045087814331055 0.560379624366760254 255 0 246 218 38
5.05356025695800781 6.24033403396606445 0.585924148559570312 255 0 246 218 38
5.04088354110717773 6.22559452056884766 0.621071279048919678 255 0 246 218 38
5.03416204452514648 6.26725578308105469 0.762429118156433105 255 0 246 218 38
5.03308820724487305 6.30713605880737305 0.763368666172027588 255 0 246 218 38
5.00353479385375977 6.27049493789672852 0.731074273586273193 255 0 246 218 38
5.01909446716308594 6.25175809860229492 0.749602615833282471 255 0 246 218 38
4.99744653701782227 6.28923463821411133 0.733056366443634033 255 0 246 218 38
5.05299234390258789 6.23960399627685547 0.557590723037719727 255 0 246 218 38
5.02485418319702148 6.34459781646728516 0.764137327671051025 255 0 246 218 38
4.96925497055053711 6.31426858901977539 0.713275909423828125 255 0 246 218 38
5.01222085952758789 6.21048355102539062 0.672581672668457031 255 0 246 218 38
5.03200054168701172 6.23922967910766602 0.694465816020965576 255 0 246 218 38
5.02638912200927734 6.21373128890991211 0.625788211822509766 255 0 246 218 38
5.04356813430786133 6.24446344375610352 0.605829298496246338 255 0 246 218 38
5.04336261749267578 6.23486757278442383 0.629008948802947998 255 0 246 218 38
5.02711105346679688 6.22609663009643555 0.699090778827667236 255 0 246 218 38
5.02395486831665039 6.23088455200195312 0.752224564552307129 255 0 246 218 38
5.04440450668334961 6.25197362899780273 0.775171577930450439 255 0 246 218 38
5.00513267517089844 6.39474630355834961 0.766295254230499268 255 0 246 218 38
4.96456432342529297 6.29979324340820312 0.653639793395996094 255 0 246 218 38
5.01818704605102539 6.25930261611938477 0.688202917575836182 255 0 246 218 38
4.97736215591430664 6.30251026153564453 0.672510862350463867 255 0 246 218 38
4.97052383422851562 6.30642318725585938 0.703398525714874268 255 0 246 218 38
5.04107952117919922 6.26741123199462891 0.571772873401641846 255 0 246 218 38
4.98836660385131836 6.30410242080688477 0.58508831262588501 255 0 246 218 38
5.00048065185546875 6.28823566436767578 0.624210357666015625 255 0 246 218 38
4.97873926162719727 6.29603147506713867 0.567435622215270996 255 0 246 218 38
4.97772741317749023 6.30523490905761719 0.635090291500091553 255 0 246 218 38
5.01891422271728516 6.27653074264526367 0.589236140251159668 255 0 246 218 38
5.04354238510131836 6.31105518341064453 0.776472032070159912 255 0 246 218 38
5.04495954513549805 6.32147455215454102 0.785589337348937988 255 0 246 218 38
