ply
format ascii 1.0
element vertex 606
property float x
property float y
property float z
property uchar red
property uchar green
property uchar blue
property uchar alpha
property uint label
end_header
7.21785306930541992 4.00099563598632812 0.0763963088393211365 190 153 112 255 1
7.21702146530151367 3.99677896499633789 0.0963885486125946045 190 153 112 255 1
7.04443454742431641 3.89892148971557617 0.547034144401550293 190 153 112 255 1
7.06873464584350586 3.91551661491394043 0.255799472332000732 190 153 112 255 1
7.01195049285888672 3.89445185661315918 0.315361559391021729 190 153 112 255 1
6.97895956039428711 3.90387535095214844 0.121976256370544434 190 153 112 255 1
6.95700883865356445 3.89357137680053711 0.148610368371009827 190 153 112 255 1
7.43096113204956055 4.07724285125732422 0.0639995411038398743 190 153 112 255 1
7.38072586059570312 4.03105020523071289 0.503634512424468994 190 153 112 255 1
7.34373235702514648 4.01866769790649414 0.481709659099578857 190 153 112 255 1
7.07693099975585938 3.92005205154418945 0.316224366426467896 190 153 112 255 1
7.211334228515625 3.97173428535461426 0.344916343688964844 190 153 112 255 1
7.25982856750488281 3.981842041015625 0.408794283866882324 190 153 112 255 1
7.20624685287475586 3.96650433540344238 0.375047147274017334 190 153 112 255 1
6.96910238265991211 3.9039311408996582 0.061665121465921402 190 153 112 255 1
6.92347002029418945 3.88522982597351074 0.0712113231420516968 190 153 112 255 1
7.31599187850952148 4.00814342498779297 0.508834958076477051 190 153 112 255 1
7.01149940490722656 3.92265605926513672 0.0674417465925216675 190 153 112 255 1
7.27669620513916016 3.99688839912414551 0.332781761884689331 190 153 112 255 1
7.30731725692749023 4.01131439208984375 0.317656248807907104 190 153 112 255 1
7.334259033203125 4.02099132537841797 0.301537692546844482 190 153 112 255 1
7.33635234832763672 4.01717138290405273 0.369737237691879272 190 153 112 255 1
7.11374092102050781 3.95581483840942383 0.118343375623226166 190 153 112 255 1
7.16602993011474609 3.97792840003967285 0.105488859117031097 190 153 112 255 1
7.08320903778076172 3.94128823280334473 0.116996094584465027 190 153 112 255 1
7.05900812149047852 3.93938565254211426 0.0802143663167953491 190 153 112 255 1
6.91034460067749023 3.79711580276489258 0.319774895906448364 190 153 112 255 1
7.18575668334960938 3.94298982620239258 1.10249996185302734 190 153 112 255 1
7.24037885665893555 3.96431946754455566 1.11750006675720215 190 153 112 255 1
7.04524898529052734 3.89766025543212891 0.662783443927764893 190 153 112 255 1
6.97866725921630859 3.87991786003112793 0.639297425746917725 190 153 112 255 1
6.9469294548034668 3.86549711227416992 0.665784776210784912 190 153 112 255 1
7.39012002944946289 4.04538631439208984 0.583073616027832031 190 153 112 255 1
7.36163997650146484 4.02342987060546875 0.551850616931915283 190 153 112 255 1
7.37905645370483398 4.03178262710571289 0.579245686531066895 190 153 112 255 1
7.37552070617675781 4.02754878997802734 0.628504037857055664 190 153 112 255 1
6.97949123382568359 3.87478876113891602 1.03878521919250488 190 153 112 255 1
7.00398635864257812 3.88499999046325684 1.02499997615814209 190 153 112 255 1
7.05711555480957031 3.89878225326538086 1.03687500953674316 190 153 112 255 1
6.96705770492553711 3.86479377746582031 0.98754650354385376 190 153 112 255 1
7.09012269973754883 3.9075322151184082 1.12140238285064697 190 153 112 255 1
7.10146045684814453 3.90999984741210938 1.17750000953674316 190 153 112 255 1
7.06349802017211914 3.90039801597595215 1.13130402565002441 190 153 112 255 1
6.93162107467651367 3.84109687805175781 0.578852653503417969 190 153 112 255 1
6.93565273284912109 3.86370658874511719 0.529679477214813232 190 153 112 255 1
7.42084360122680664 4.02785110473632812 1.30123627185821533 190 153 112 255 1
7.29459905624389648 3.99214363098144531 0.624681472778320312 190 153 112 255 1
7.33970975875854492 4.00745296478271484 0.651625156402587891 190 153 112 255 1
7.30075883865356445 3.99298620223999023 0.703125 190 153 112 255 1
7.20143461227416992 3.96065187454223633 0.601655364036560059 190 153 112 255 1
7.14850044250488281 3.94096565246582031 0.547546505928039551 190 153 112 255 1
7.13205432891845703 3.93091154098510742 0.605088949203491211 190 153 112 255 1
7.43952178955078125 4.04461479187011719 1.12701940536499023 190 153 112 255 1
6.99551486968994141 3.86170172691345215 1.4960404634475708 190 153 112 255 1
7.0310511589050293 3.88499999046325684 1.47749996185302734 190 153 112 255 1
7.09075260162353516 3.90305519104003906 1.4524998664855957 190 153 112 255 1
7.43800640106201172 4.04110383987426758 1.36104476451873779 190 153 112 255 1
7.4478306770324707 4.04392480850219727 1.3025519847869873 190 153 112 255 1
7.00261497497558594 3.88499999046325684 1.07499992847442627 190 153 112 255 1
6.96893501281738281 3.86502766609191895 1.07305800914764404 190 153 112 255 1
7.08302545547485352 3.90393495559692383 1.08835220336914062 190 153 112 255 1
6.97916269302368164 3.87518954277038574 1.11396265029907227 190 153 112 255 1
7.04637861251831055 3.9019615650177002 0.584216117858886719 190 153 112 255 1
7.26537227630615234 3.97911429405212402 0.792499959468841553 190 153 112 255 1
7.09500026702880859 3.91016888618469238 1.05874991416931152 190 153 112 255 1
7.13288307189941406 3.92488288879394531 0.939374983310699463 190 153 112 255 1
7.1572723388671875 3.93403911590576172 0.988124966621398926 190 153 112 255 1
7.1785125732421875 3.94284343719482422 1.05156242847442627 190 153 112 255 1
7.11930942535400391 3.92164373397827148 0.864218711853027344 190 153 112 255 1
7.44197368621826172 4.04560232162475586 1.19426918029785156 190 153 112 255 1
7.4245142936706543 4.03280448913574219 1.26400816440582275 190 153 112 255 1
7.38831901550292969 4.01748752593994141 1.2260819673538208 190 153 112 255 1
7.32865238189697266 3.99619960784912109 1.25531244277954102 190 153 112 255 1
7.2235417366027832 3.9701387882232666 0.531575441360473633 190 153 112 255 1
7.210357666015625 3.96550583839416504 0.556393682956695557 190 153 112 255 1
7.26024627685546875 3.98312020301818848 0.579542279243469238 190 153 112 255 1
6.97087526321411133 3.8776085376739502 0.695840060710906982 190 153 112 255 1
6.97069883346557617 3.87477540969848633 0.77994006872177124 190 153 112 255 1
6.95312595367431641 3.86540079116821289 0.736392855644226074 190 153 112 255 1
7.29409456253051758 3.9853355884552002 1.08999991416931152 190 153 112 255 1
7.07276487350463867 3.90389156341552734 0.990000009536743164 190 153 112 255 1
7.08249998092651367 3.90738368034362793 0.832499980926513672 190 153 112 255 1
6.96686935424804688 3.86062359809875488 1.1190793514251709 190 153 112 255 1
7.0547490119934082 3.89499998092651367 1.18499994277954102 190 153 112 255 1
6.9815831184387207 3.87201333045959473 1.15660810470581055 190 153 112 255 1
6.93670845031738281 3.76626896858215332 0.571431159973144531 190 153 112 255 1
6.92552471160888672 3.80697512626647949 0.550420582294464111 190 153 112 255 1
7.05014419555664062 3.89693975448608398 0.844999969005584717 190 153 112 255 1
7.00323772430419922 3.88499999046325684 0.811249971389770508 190 153 112 255 1
7.00062942504882812 3.88499999046325684 0.865000009536743164 190 153 112 255 1
6.95972537994384766 3.86504292488098145 0.870397984981536865 190 153 112 255 1
6.98023414611816406 3.87712502479553223 0.884999990463256836 190 153 112 255 1
7.40360879898071289 4.03346824645996094 0.763852119445800781 190 153 112 255 1
7.38705825805664062 4.02500009536743164 0.885625004768371582 190 153 112 255 1
7.41548013687133789 4.03140020370483398 1.14437496662139893 190 153 112 255 1
7.40216207504272461 4.02527856826782227 1.19707190990447998 190 153 112 255 1
7.41955900192260742 4.04470252990722656 0.761874616146087646 190 153 112 255 1
7.41623878479003906 4.05163049697875977 0.710069060325622559 190 153 112 255 1
7.26814746856689453 3.97866392135620117 0.824999988079071045 190 153 112 255 1
6.94108915328979492 3.76716995239257812 0.624249815940856934 190 153 112 255 1
6.93281221389770508 3.79704475402832031 0.621623694896697998 190 153 112 255 1
6.93480825424194336 3.84072184562683105 0.644596576690673828 190 153 112 255 1
6.9380650520324707 3.85218644142150879 0.681398153305053711 190 153 112 255 1
7.25212621688842773 3.97087621688842773 0.997500002384185791 190 153 112 255 1
7.0890812873840332 3.90474891662597656 1.27874994277954102 190 153 112 255 1
7.06013202667236328 3.89522624015808105 1.31749987602233887 190 153 112 255 1
7.09499979019165039 3.90483951568603516 1.36500000953674316 190 153 112 255 1
7.40012598037719727 4.02228212356567383 1.35249996185302734 190 153 112 255 1
7.39639997482299805 4.01999998092651367 1.39499998092651367 190 153 112 255 1
7.35499954223632812 4.01200103759765625 0.834999978542327881 190 153 112 255 1
7.37650203704833984 4.02180004119873047 0.791249990463256836 190 153 112 255 1
7.29300117492675781 3.97889113426208496 1.46624994277954102 190 153 112 255 1
7.19857406616210938 3.94733643531799316 1.26999998092651367 190 153 112 255 1
7.12592840194702148 3.91700410842895508 1.31591606140136719 190 153 112 255 1
7.26754188537597656 3.97499990463256836 1.15999996662139893 190 153 112 255 1
7.22441577911376953 3.96070313453674316 0.942187488079071045 190 153 112 255 1
7.33002090454101562 4.00178766250610352 0.929374933242797852 190 153 112 255 1
7.08349323272705078 3.91388750076293945 0.566147446632385254 190 153 112 255 1
7.30904245376586914 3.98780012130737305 1.21499991416931152 190 153 112 255 1
7.42045831680297852 4.04458332061767578 0.866199314594268799 190 153 112 255 1
7.40912294387817383 4.03540134429931641 0.905588090419769287 190 153 112 255 1
7.40266656875610352 4.02984523773193359 0.939971864223480225 190 153 112 255 1
7.43841171264648438 4.03996706008911133 1.47051584720611572 190 153 112 255 1
7.24332332611083984 3.96749496459960938 1.04874992370605469 190 153 112 255 1
7.35178899765014648 4.00500011444091797 1.15499997138977051 190 153 112 255 1
7.31883811950683594 3.9990236759185791 0.747500002384185791 190 153 112 255 1
7.35518741607666016 4.01464509963989258 0.723848283290863037 190 153 112 255 1
7.33397245407104492 3.99499988555908203 1.38999998569488525 190 153 112 255 1
7.30811405181884766 4.00114202499389648 0.572119653224945068 190 153 112 255 1
7.35665655136108398 4.01842784881591797 0.578429281711578369 190 153 112 255 1
7.32834768295288086 4.00912809371948242 0.608598291873931885 190 153 112 255 1
7.32000017166137695 3.9960486888885498 1.04999995231628418 190 153 112 255 1
7.34924983978271484 4.00500011444091797 1.08749997615814209 190 153 112 255 1
7.42123222351074219 4.03499984741210938 1.10124993324279785 190 153 112 255 1
6.97785186767578125 3.87496232986450195 0.952416777610778809 190 153 112 255 1
7.44357490539550781 4.04228734970092773 1.23316788673400879 190 153 112 255 1
7.05488681793212891 3.89492464065551758 1.25499999523162842 190 153 112 255 1
7.00540304183959961 3.88492488861083984 1.15749990940093994 190 153 112 255 1
6.98601436614990234 3.87515044212341309 1.23569965362548828 190 153 112 255 1
7.01313400268554688 3.8857884407043457 1.24312496185302734 190 153 112 255 1
7.1219940185546875 3.9258725643157959 0.715781211853027344 190 153 112 255 1
7.12776756286621094 3.92841267585754395 0.669227361679077148 190 153 112 255 1
7.19193506240844727 3.95795679092407227 0.637952864170074463 190 153 112 255 1
7.07855510711669922 3.90493297576904297 0.916249990463256836 190 153 112 255 1
7.00480937957763672 3.88496875762939453 0.927500009536743164 190 153 112 255 1
7.44101762771606445 4.0408320426940918 1.42085933685302734 190 153 112 255 1
7.29395675659179688 3.98671746253967285 0.961093723773956299 190 153 112 255 1
7.03978633880615234 3.89470672607421875 0.740000009536743164 190 153 112 255 1
7.06868553161621094 3.90366315841674805 0.751249969005584717 190 153 112 255 1
7.3686370849609375 4.01962661743164062 0.677756607532501221 190 153 112 255 1
7.39260768890380859 4.03685760498046875 0.659132122993469238 190 153 112 255 1
7.38390874862670898 4.03039360046386719 0.72384345531463623 190 153 112 255 1
7.40469646453857422 4.05513334274291992 0.676430702209472656 190 153 112 255 1
6.99520540237426758 3.87621927261352539 1.30464446544647217 190 153 112 255 1
6.97712564468383789 3.86453819274902344 1.24385237693786621 190 153 112 255 1
6.98321390151977539 3.86431622505187988 1.3276907205581665 190 153 112 255 1
7.29782676696777344 3.98387956619262695 1.29499995708465576 190 153 112 255 1
7.35146808624267578 4.00278377532958984 1.34874999523162842 190 153 112 255 1
7.33716678619384766 3.9965822696685791 1.43531239032745361 190 153 112 255 1
7.40831518173217773 4.02500009536743164 1.47000002861022949 190 153 112 255 1
7.35969400405883789 4.00280380249023438 1.5566704273223877 190 153 112 255 1
7.21373081207275391 3.94999980926513672 1.47500002384185791 190 153 112 255 1
7.15791130065917969 3.9299464225769043 1.35374999046325684 190 153 112 255 1
7.12696743011474609 3.91549563407897949 1.45937490463256836 190 153 112 255 1
7.02819156646728516 3.88490962982177734 1.40718746185302734 190 153 112 255 1
7.00104570388793945 3.8750612735748291 1.37298417091369629 190 153 112 255 1
6.98791265487670898 3.86472678184509277 1.39314019680023193 190 153 112 255 1
7.00802516937255859 3.87471175193786621 1.44499993324279785 190 153 112 255 1
6.95995712280273438 3.87413454055786133 0.567106783390045166 190 153 112 255 1
6.9833827018737793 3.87977313995361328 0.599065721035003662 190 153 112 255 1
7.24107456207275391 3.96367502212524414 1.19374990463256836 190 153 112 255 1
7.26913309097290039 3.97499990463256836 1.23500001430511475 190 153 112 255 1
6.94306087493896484 3.84787273406982422 0.695938467979431152 190 153 112 255 1
7.26932954788208008 3.98035693168640137 0.683673441410064697 190 153 112 255 1
7.22319793701171875 3.9647071361541748 0.673785924911499023 190 153 112 255 1
7.27194452285766602 3.98419713973999023 0.647518694400787354 190 153 112 255 1
7.22845792770385742 3.96515440940856934 0.736874997615814209 190 153 112 255 1
7.42914009094238281 4.04514503479003906 0.954291939735412598 190 153 112 255 1
7.41516351699829102 4.03443622589111328 1.0399545431137085 190 153 112 255 1
7.4144597053527832 4.03217363357543945 1.00465023517608643 190 153 112 255 1
7.4334259033203125 4.04548072814941406 1.0120621919631958 190 153 112 255 1
7.40404748916625977 4.0304107666015625 0.975796818733215332 190 153 112 255 1
7.26719188690185547 3.97783422470092773 0.879374980926513672 190 153 112 255 1
7.16640377044677734 3.93249273300170898 1.41343748569488525 190 153 112 255 1
7.15222787857055664 3.92499995231628418 1.52499997615814209 190 153 112 255 1
7.30480813980102539 3.98975324630737305 1.00749993324279785 190 153 112 255 1
7.11644744873046875 3.91499996185302734 1.25499999523162842 190 153 112 255 1
7.19772720336914062 3.94758486747741699 1.21218752861022949 190 153 112 255 1
6.94238758087158203 3.86194324493408203 0.585354208946228027 190 153 112 255 1
6.94153451919555664 3.85974264144897461 0.620708346366882324 190 153 112 255 1
7.17835807800292969 3.94521665573120117 0.82187497615814209 190 153 112 255 1
7.19511270523071289 3.95208954811096191 0.855883181095123291 190 153 112 255 1
7.16396808624267578 3.9349057674407959 1.16750001907348633 190 153 112 255 1
7.15205097198486328 3.93546915054321289 0.763437449932098389 190 153 112 255 1
7.24931430816650391 3.96441316604614258 1.40718746185302734 190 153 112 255 1
7.26069164276123047 3.9693455696105957 1.32906258106231689 190 153 112 255 1
7.08295249938964844 3.9106903076171875 0.672016620635986328 190 153 112 255 1
6.72595357894897461 3.72689557075500488 2.32976531982421875 190 153 112 255 1
6.67195224761962891 3.70342373847961426 2.34812474250793457 190 153 112 255 1
7.37469005584716797 3.98933696746826172 1.8599998950958252 190 153 112 255 1
7.41258811950683594 4.00313901901245117 1.90914797782897949 190 153 112 255 1
7.17564201354980469 3.92273712158203125 1.64437496662139893 190 153 112 255 1
7.28499984741210938 3.96404385566711426 1.6799999475479126 190 153 112 255 1
7.22696447372436523 3.94487905502319336 1.62810969352722168 190 153 112 255 1
7.31843852996826172 3.96499991416931152 1.88499999046325684 190 153 112 255 1
7.31071329116821289 3.9636833667755127 1.86213338375091553 190 153 112 255 1
7.03602313995361328 3.86943292617797852 2.04568719863891602 190 153 112 255 1
7.01877069473266602 3.86339449882507324 2.03516340255737305 190 153 112 255 1
7.00223350524902344 3.85181736946105957 2.01444315910339355 190 153 112 255 1
6.93946743011474609 3.80571079254150391 2.46250009536743164 190 153 112 255 1
7.12636852264404297 3.88865113258361816 2.07596635818481445 190 153 112 255 1
7.18124294281005859 3.91057777404785156 2.12794208526611328 190 153 112 255 1
7.10764789581298828 3.87618041038513184 2.50428199768066406 190 153 112 255 1
7.09843015670776367 3.87238621711730957 2.47791624069213867 190 153 112 255 1
7.00804328918457031 3.82755637168884277 2.52566361427307129 190 153 112 255 1
7.36610794067382812 3.99992203712463379 1.59715640544891357 190 153 112 255 1
7.42560005187988281 4.02977323532104492 1.57093954086303711 190 153 112 255 1
7.12755012512207031 3.89045119285583496 2.02748394012451172 190 153 112 255 1
7.20805931091308594 3.91986751556396484 1.99749994277954102 190 153 112 255 1
7.256011962890625 3.93750810623168945 2.06500005722045898 190 153 112 255 1
7.47704458236694336 4.02456426620483398 2.05767560005187988 190 153 112 255 1
7.47684097290039062 4.02498245239257812 2.10252523422241211 190 153 112 255 1
7.46065425872802734 4.01514625549316406 2.10928201675415039 190 153 112 255 1
7.10084009170532227 3.8749997615814209 2.44499993324279785 190 153 112 255 1
7.19920253753662109 3.90869307518005371 2.47406244277954102 190 153 112 255 1
7.33172893524169922 3.97270536422729492 1.79874992370605469 190 153 112 255 1
7.28100061416625977 3.95560121536254883 1.76015615463256836 190 153 112 255 1
7.33500957489013672 3.95384025573730469 2.55866909027099609 190 153 112 255 1
7.43707847595214844 4.00472831726074219 2.28372907638549805 190 153 112 255 1
7.38149881362915039 3.97997140884399414 2.25 190 153 112 255 1
7.39737176895141602 3.98664331436157227 2.32811594009399414 190 153 112 255 1
7.04046773910522461 3.86543369293212891 2.00608515739440918 190 153 112 255 1
7.08004522323608398 3.87796282768249512 1.99075579643249512 190 153 112 255 1
7.4447779655456543 3.99550271034240723 2.44450044631958008 190 153 112 255 1
7.47174310684204102 4.00858402252197266 2.41031241416931152 190 153 112 255 1
7.48569631576538086 4.0115962028503418 2.4603123664855957 190 153 112 255 1
7.18252277374267578 3.90824604034423828 2.19546866416931152 190 153 112 255 1
7.43357992172241211 3.99856352806091309 2.22112894058227539 190 153 112 255 1
6.83482933044433594 3.77323031425476074 2.27153253555297852 190 153 112 255 1
6.91074419021606445 3.8016057014465332 2.3362889289855957 190 153 112 255 1
6.74015474319458008 3.74232149124145508 2.12050938606262207 190 153 112 255 1
6.76386070251464844 3.7483217716217041 2.20677804946899414 190 153 112 255 1
6.68739748001098633 3.71665263175964355 2.20428347587585449 190 153 112 255 1
6.59079313278198242 3.66695570945739746 2.41380190849304199 190 153 112 255 1
6.60876703262329102 3.6734309196472168 2.46835780143737793 190 153 112 255 1
6.56796646118164062 3.65497541427612305 2.45867586135864258 190 153 112 255 1
7.10056400299072266 3.90499997138977051 1.49874997138977051 190 153 112 255 1
6.64839315414428711 3.68884992599487305 2.47655224800109863 190 153 112 255 1
6.69162845611572266 3.7028052806854248 2.49497199058532715 190 153 112 255 1
6.60278177261352539 3.67499971389770508 2.375 190 153 112 255 1
7.02666234970092773 3.85454201698303223 2.10391592979431152 190 153 112 255 1
7.07303047180175781 3.87506484985351562 2.09146523475646973 190 153 112 255 1
7.12547874450683594 3.8902740478515625 2.10851049423217773 190 153 112 255 1
7.07981348037719727 3.87290143966674805 2.12749052047729492 190 153 112 255 1
7.42286396026611328 3.98798561096191406 2.48299813270568848 190 153 112 255 1
6.81385135650634766 3.76807212829589844 2.171875 190 153 112 255 1
7.44489479064941406 4.00522089004516602 2.1795961856842041 190 153 112 255 1
7.46802282333374023 4.01677894592285156 2.19506144523620605 190 153 112 255 1
7.119415283203125 3.89359378814697266 1.73624992370605469 190 153 112 255 1
7.15796375274658203 3.90499997138977051 1.82499992847442627 190 153 112 255 1
7.21638822555541992 3.92659306526184082 1.88999998569488525 190 153 112 255 1
6.63406610488891602 3.69875669479370117 2.16968727111816406 190 153 112 255 1
6.82390165328979492 3.76371049880981445 2.41577029228210449 190 153 112 255 1
6.88605451583862305 3.7851710319519043 2.44060182571411133 190 153 112 255 1
6.82383584976196289 3.75106334686279297 2.53305506706237793 190 153 112 255 1
7.23351478576660156 3.9255373477935791 2.20499992370605469 190 153 112 255 1
7.26749992370605469 3.93898177146911621 2.29874968528747559 190 153 112 255 1
7.19141483306884766 3.91379022598266602 2.28015041351318359 190 153 112 255 1
7.34689044952392578 3.98696160316467285 1.72254312038421631 190 153 112 255 1
6.76680326461791992 3.74541783332824707 2.25158166885375977 190 153 112 255 1
6.76572275161743164 3.74511384963989258 2.28187465667724609 190 153 112 255 1
6.67392587661743164 3.7111973762512207 2.23687481880187988 190 153 112 255 1
7.35097026824951172 3.97185945510864258 2.05499982833862305 190 153 112 255 1
7.26143741607666016 3.9378662109375 2.04541540145874023 190 153 112 255 1
7.31916570663452148 3.96005582809448242 2.08874988555908203 190 153 112 255 1
7.34296369552612305 3.97293734550476074 2.0141913890838623 190 153 112 255 1
6.68885040283203125 3.72325277328491211 2.11188292503356934 190 153 112 255 1
7.14999961853027344 3.89311122894287109 2.43499994277954102 190 153 112 255 1
6.56744718551635742 3.68948841094970703 2.05215167999267578 190 153 112 255 1
6.55894899368286133 3.68163704872131348 2.03409218788146973 190 153 112 255 1
6.61085939407348633 3.70381546020507812 2.03480219841003418 190 153 112 255 1
6.57557344436645508 3.68336772918701172 2.02550745010375977 190 153 112 255 1
6.85922861099243164 3.76893496513366699 2.49292898178100586 190 153 112 255 1
6.59439611434936523 3.67541384696960449 2.3267207145690918 190 153 112 255 1
7.35173606872558594 3.99065852165222168 1.67953121662139893 190 153 112 255 1
7.38312625885009766 3.99692749977111816 1.7633134126663208 190 153 112 255 1
7.40958881378173828 4.01254558563232422 1.72374999523162842 190 153 112 255 1
7.0254969596862793 3.8803715705871582 1.535919189453125 190 153 112 255 1
6.99551105499267578 3.86020755767822266 1.55095291137695312 190 153 112 255 1
6.62415933609008789 3.68830585479736328 2.27410411834716797 190 153 112 255 1
7.12461614608764648 3.90384030342102051 1.57726597785949707 190 153 112 255 1
7.18646001815795898 3.93672943115234375 1.55938136577606201 190 153 112 255 1
7.16011142730712891 3.90721893310546875 1.74294948577880859 190 153 112 255 1
7.22523117065429688 3.93805408477783203 1.70781242847442627 190 153 112 255 1
6.90249347686767578 3.80423974990844727 2.15640616416931152 190 153 112 255 1
6.87454414367675781 3.79845070838928223 2.09790158271789551 190 153 112 255 1
6.93090200424194336 3.81749463081359863 2.10554599761962891 190 153 112 255 1
6.97289133071899414 3.83081150054931641 2.17374992370605469 190 153 112 255 1
6.99206781387329102 3.84948086738586426 1.60067307949066162 190 153 112 255 1
7.01186466217041016 3.86491823196411133 1.6196293830871582 190 153 112 255 1
6.98491096496582031 3.83466958999633789 2.24062490463256836 190 153 112 255 1
7.45068359375 4.0140228271484375 2.02230691909790039 190 153 112 255 1
7.10398292541503906 3.88499999046325684 1.95499992370605469 190 153 112 255 1
7.24734354019165039 3.92901086807250977 2.40804672241210938 190 153 112 255 1
7.24578380584716797 3.9268038272857666 2.44250011444091797 190 153 112 255 1
6.80256032943725586 3.76635861396789551 2.11133813858032227 190 153 112 255 1
7.41768360137939453 4.01045322418212891 1.78870999813079834 190 153 112 255 1
7.38623237609863281 3.99579000473022461 1.81344592571258545 190 153 112 255 1
6.8632354736328125 3.78708219528198242 2.22499990463256836 190 153 112 255 1
6.81345748901367188 3.76661968231201172 2.22749447822570801 190 153 112 255 1
6.52331066131591797 3.64397192001342773 2.32999992370605469 190 153 112 255 1
6.53094863891601562 3.64639997482299805 2.3599998950958252 190 153 112 255 1
6.53104686737060547 3.64906787872314453 2.30249977111816406 190 153 112 255 1
7.00654506683349609 3.8338170051574707 2.46000003814697266 190 153 112 255 1
7.20704841613769531 3.91848492622375488 2.0904088020324707 190 153 112 255 1
7.03635931015014648 3.84382152557373047 2.5 190 153 112 255 1
7.42379045486450195 4.00190162658691406 1.97824943065643311 190 153 112 255 1
6.62589263916015625 3.6832118034362793 2.36392688751220703 190 153 112 255 1
6.73172330856323242 3.72247815132141113 2.43144583702087402 190 153 112 255 1
6.71117973327636719 3.71501398086547852 2.47037315368652344 190 153 112 255 1
6.67366409301757812 3.69734930992126465 2.4364769458770752 190 153 112 255 1
6.67966747283935547 3.70343446731567383 2.41249990463256836 190 153 112 255 1
7.37157058715820312 3.97074413299560547 2.4459376335144043 190 153 112 255 1
7.45202159881591797 4.02837944030761719 1.84315741062164307 190 153 112 255 1
7.45202970504760742 4.0241241455078125 1.91635429859161377 190 153 112 255 1
7.44890308380126953 4.02196073532104492 1.87426424026489258 190 153 112 255 1
6.84315872192382812 3.77575373649597168 2.3274998664855957 190 153 112 255 1
6.93134593963623047 3.79617094993591309 2.52505850791931152 190 153 112 255 1
6.922637939453125 3.79490137100219727 2.49612092971801758 190 153 112 255 1
6.86431694030761719 3.76929020881652832 2.53621006011962891 190 153 112 255 1
7.47641849517822266 4.02931356430053711 2.02115964889526367 190 153 112 255 1
7.45699977874755859 4.01264286041259766 2.06402850151062012 190 153 112 255 1
7.01275396347045898 3.85008716583251953 1.79068601131439209 190 153 112 255 1
7.01221370697021484 3.85126233100891113 1.83408439159393311 190 153 112 255 1
7.03538894653320312 3.86511731147766113 1.78991377353668213 190 153 112 255 1
7.40080356597900391 3.98464679718017578 2.3912498950958252 190 153 112 255 1
7.38359260559082031 3.9836273193359375 2.15999984741210938 190 153 112 255 1
7.43155574798583984 4.0019989013671875 2.13718748092651367 190 153 112 255 1
6.578765869140625 3.67686223983764648 2.16124987602233887 190 153 112 255 1
7.01535940170288086 3.85080599784851074 1.8645789623260498 190 153 112 255 1
6.55216646194458008 3.67946958541870117 2.0803229808807373 190 153 112 255 1
7.40083885192871094 3.99222707748413086 2.08500003814697266 190 153 112 255 1
7.28609085083007812 3.94914960861206055 2.1178133487701416 190 153 112 255 1
7.31825828552246094 3.95907497406005859 2.1399998664855957 190 153 112 255 1
7.30962848663330078 3.95011401176452637 2.43249988555908203 190 153 112 255 1
6.59499979019165039 3.67730069160461426 2.28499984741210938 190 153 112 255 1
7.11890316009521484 3.89214229583740234 1.86039352416992188 190 153 112 255 1
7.03489255905151367 3.86492037773132324 1.8940805196762085 190 153 112 255 1
7.06213140487670898 3.8749997615814209 1.88499999046325684 190 153 112 255 1
7.03699588775634766 3.86579775810241699 1.85199224948883057 190 153 112 255 1
6.84483432769775391 3.7971045970916748 2.0448763370513916 190 153 112 255 1
6.86379575729370117 3.80318713188171387 2.05998802185058594 190 153 112 255 1
6.77067756652832031 3.76067614555358887 2.02446079254150391 190 153 112 255 1
6.84507417678833008 3.78717041015625 2.02036905288696289 190 153 112 255 1
6.78533220291137695 3.77418899536132812 2.06518936157226562 190 153 112 255 1
7.29235696792602539 3.97505474090576172 1.58176600933074951 190 153 112 255 1
7.11774921417236328 3.89591121673583984 1.68626570701599121 190 153 112 255 1
7.05095434188842773 3.8749997615814209 1.69499993324279785 190 153 112 255 1
7.03506898880004883 3.84989643096923828 2.41874980926513672 190 153 112 255 1
7.08551311492919922 3.87491106986999512 2.23999977111816406 190 153 112 255 1
7.01669692993164062 3.84433507919311523 2.33499979972839355 190 153 112 255 1
7.06437492370605469 3.86066722869873047 2.39312481880187988 190 153 112 255 1
7.09639883041381836 3.87491512298583984 2.36749982833862305 190 153 112 255 1
7.05487775802612305 3.85935878753662109 2.30375003814697266 190 153 112 255 1
7.34129571914672852 3.96499991416931152 2.31500005722045898 190 153 112 255 1
7.21836280822753906 3.92973423004150391 1.79250001907348633 190 153 112 255 1
7.24791765213012695 3.94011092185974121 1.8049999475479126 190 153 112 255 1
7.22501611709594727 3.93252229690551758 1.84874999523162842 190 153 112 255 1
7.18999958038330078 3.91031789779663086 2.16999983787536621 190 153 112 255 1
7.41456413269042969 4.02022075653076172 1.6571650505065918 190 153 112 255 1
7.41387748718261719 4.01906538009643555 1.60514724254608154 190 153 112 255 1
7.13383722305297852 3.88976526260375977 2.21743392944335938 190 153 112 255 1
7.11909389495849609 3.88591217994689941 2.25038981437683105 190 153 112 255 1
7.1214141845703125 3.88484025001525879 2.31999993324279785 190 153 112 255 1
7.43941593170166016 4.00410699844360352 2.33761715888977051 190 153 112 255 1
7.44501113891601562 3.99954700469970703 2.37810254096984863 190 153 112 255 1
7.47737741470336914 4.01450252532958984 2.37642145156860352 190 153 112 255 1
7.0599207878112793 3.875 1.76499998569488525 190 153 112 255 1
7.09887123107910156 3.88628530502319336 1.81562495231628418 190 153 112 255 1
7.13776159286499023 3.8964841365814209 1.79586255550384521 190 153 112 255 1
7.06301164627075195 3.87506866455078125 1.83749997615814209 190 153 112 255 1
7.15644168853759766 3.89583826065063477 2.36249971389770508 190 153 112 255 1
7.20233583450317383 3.91273856163024902 2.35233354568481445 190 153 112 255 1
7.1802825927734375 3.90514087677001953 2.39749979972839355 190 153 112 255 1
7.12714099884033203 3.89125800132751465 2.04680919647216797 190 153 112 255 1
7.43999958038330078 3.99195265769958496 2.54999971389770508 190 153 112 255 1
6.69548606872558594 3.73868036270141602 2.0454401969909668 190 153 112 255 1
6.81911182403564453 3.78477573394775391 2.03519678115844727 190 153 112 255 1
6.90965175628662109 3.80494546890258789 2.20125007629394531 190 153 112 255 1
7.00252151489257812 3.85507631301879883 1.66530561447143555 190 153 112 255 1
7.02118158340454102 3.8643491268157959 1.69717252254486084 190 153 112 255 1
7.00335454940795898 3.84570574760437012 1.73972439765930176 190 153 112 255 1
7.02905368804931641 3.86820125579833984 1.73672771453857422 190 153 112 255 1
7.00844860076904297 3.85540580749511719 1.7339777946472168 190 153 112 255 1
6.99312400817871094 3.8451542854309082 1.64400732517242432 190 153 112 255 1
7.21644115447998047 3.91313815116882324 2.53374981880187988 190 153 112 255 1
6.93731975555419922 3.83188843727111816 2.06278038024902344 190 153 112 255 1
6.932830810546875 3.82657384872436523 2.02752470970153809 190 153 112 255 1
6.92119646072387695 3.81058907508850098 2.01374626159667969 190 153 112 255 1
7.44069671630859375 4.03419589996337891 1.60766804218292236 190 153 112 255 1
7.44981575012207031 4.04495716094970703 1.52750313282012939 190 153 112 255 1
7.45063400268554688 4.04461574554443359 1.59394490718841553 190 153 112 255 1
6.61729574203491211 3.6969597339630127 2.10937380790710449 190 153 112 255 1
6.62365007400512695 3.71005344390869141 2.07380080223083496 190 153 112 255 1
7.31569528579711914 3.95950412750244141 1.9607391357421875 190 153 112 255 1
7.26285982131958008 3.94327592849731445 1.92624998092651367 190 153 112 255 1
7.2190556526184082 3.92470073699951172 1.95499992370605469 190 153 112 255 1
7.44824504852294922 4.04114723205566406 1.66997325420379639 190 153 112 255 1
7.44874477386474609 4.03522729873657227 1.73194372653961182 190 153 112 255 1
7.45636367797851562 4.04527807235717773 1.73917877674102783 190 153 112 255 1
7.01315593719482422 3.85090160369873047 1.90635371208190918 190 153 112 255 1
7.02280902862548828 3.85559630393981934 1.98688876628875732 190 153 112 255 1
7.01030445098876953 3.8410799503326416 1.97820329666137695 190 153 112 255 1
7.31517696380615234 3.97954845428466797 1.62593746185302734 190 153 112 255 1
7.31003379821777344 3.95345830917358398 2.21374988555908203 190 153 112 255 1
7.36303615570068359 3.97392725944519043 2.20012736320495605 190 153 112 255 1
7.2704005241394043 3.94104862213134766 2.16999983787536621 190 153 112 255 1
6.90479755401611328 3.80194854736328125 2.27345061302185059 190 153 112 255 1
7.36751365661621094 3.98399186134338379 1.93499994277954102 190 153 112 255 1
7.42161464691162109 3.99515914916992188 2.2499997615814209 190 153 112 255 1
7.42067432403564453 3.99609541893005371 2.32121515274047852 190 153 112 255 1
7.26701068878173828 3.96843075752258301 1.54661297798156738 190 153 112 255 1
7.19731950759887695 3.93496537208557129 1.58892107009887695 190 153 112 255 1
6.81732034683227539 3.76050376892089844 2.37168288230895996 190 153 112 255 1
6.75295448303222656 3.73437881469726562 2.38399934768676758 190 153 112 255 1
7.30999994277954102 3.94928741455078125 2.4849998950958252 190 153 112 255 1
7.28982448577880859 3.94191217422485352 2.50999975204467773 190 153 112 255 1
7.36907863616943359 3.97027254104614258 2.5110015869140625 190 153 112 255 1
6.7908935546875 3.74374651908874512 2.49034976959228516 190 153 112 255 1
6.78232145309448242 3.73462796211242676 2.5202033519744873 190 153 112 255 1
6.74421262741088867 3.72009897232055664 2.50970053672790527 190 153 112 255 1
7.30909061431884766 3.95093297958374023 2.38054680824279785 190 153 112 255 1
7.36515665054321289 3.97312068939208984 2.35999965667724609 190 153 112 255 1
7.282012939453125 3.94335341453552246 2.34124994277954102 190 153 112 255 1
6.7984166145324707 3.74566555023193359 2.4634554386138916 190 153 112 255 1
7.12036800384521484 3.9013664722442627 1.63368117809295654 190 153 112 255 1
7.04173755645751953 3.87847399711608887 1.57204174995422363 190 153 112 255 1
7.03992605209350586 3.87439584732055664 1.65520298480987549 190 153 112 255 1
7.06874942779541016 3.88350701332092285 1.63374996185302734 190 153 112 255 1
7.22954845428466797 3.92499995231628418 2.34124994277954102 190 153 112 255 1
7.01150798797607422 3.84500002861022949 2.27999973297119141 190 153 112 255 1
6.93636226654052734 3.81359338760375977 2.26874995231628418 190 153 112 255 1
6.66507625579833984 3.72927665710449219 2.04174566268920898 190 153 112 255 1
6.71521854400634766 3.74475240707397461 2.03475141525268555 190 153 112 255 1
6.72137737274169922 3.74768280982971191 2.07389092445373535 190 153 112 255 1
6.67309284210205078 3.72402858734130859 2.02469396591186523 190 153 112 255 1
6.97025346755981445 3.82611393928527832 2.37082290649414062 190 153 112 255 1
6.89400434494018555 3.79509401321411133 2.35069441795349121 190 153 112 255 1
7.15050506591796875 3.90026998519897461 1.97874999046325684 190 153 112 255 1
7.13023757934570312 3.89557695388793945 1.90999996662139893 190 153 112 255 1
7.11244964599609375 3.90716171264648438 1.54695570468902588 190 153 112 255 1
7.43289947509765625 4.02514553070068359 1.7163006067276001 190 153 112 255 1
7.45035457611083984 4.03011465072631836 1.79413986206054688 190 153 112 255 1
7.45428276062011719 4.01573324203491211 1.98135459423065186 190 153 112 255 1
7.46574020385742188 4.03605461120605469 1.93267083168029785 190 153 112 255 1
7.4746088981628418 4.02981710433959961 1.98339009284973145 190 153 112 255 1
7.03666543960571289 3.85437726974487305 2.19999980926513672 190 153 112 255 1
7.05889368057250977 3.86358785629272461 2.23362350463867188 190 153 112 255 1
7.07520484924316406 3.87030744552612305 2.19687509536743164 190 153 112 255 1
6.96628522872924805 3.82446050643920898 2.32500004768371582 190 153 112 255 1
6.90398788452148438 3.79381942749023438 2.41156244277954102 190 153 112 255 1
6.96817731857299805 3.83577704429626465 2.09603643417358398 190 153 112 255 1
7.01506710052490234 3.84942030906677246 2.13437509536743164 190 153 112 255 1
7.38138532638549805 3.96885919570922852 2.66119885444641113 190 153 112 255 1
7.39926242828369141 3.9732201099395752 2.6906886100769043 190 153 112 255 1
7.09431314468383789 3.86413121223449707 2.55513691902160645 190 153 112 255 1
7.4031987190246582 3.9788515567779541 2.58500003814697266 190 153 112 255 1
7.27712535858154297 3.93053674697875977 2.65905475616455078 190 153 112 255 1
7.04602193832397461 3.84237098693847656 2.56145620346069336 190 153 112 255 1
7.09773635864257812 3.85794377326965332 2.59502816200256348 190 153 112 255 1
7.02405214309692383 3.83270072937011719 2.58297085762023926 190 153 112 255 1
7.13429737091064453 3.87228798866271973 2.60802054405212402 190 153 112 255 1
7.41857242584228516 3.98615074157714844 2.61594820022583008 190 153 112 255 1
7.43886280059814453 3.98380374908447266 2.70842647552490234 190 153 112 255 1
7.21633243560791016 3.91331911087036133 2.59661722183227539 190 153 112 255 1
7.21799659729003906 3.9074864387512207 2.62982010841369629 190 153 112 255 1
7.29920387268066406 3.94087934494018555 2.63568758964538574 190 153 112 255 1
7.35980558395385742 3.96381425857543945 2.63568854331970215 190 153 112 255 1
7.33456182479858398 3.95197367668151855 2.6734919548034668 190 153 112 255 1
7.24038219451904297 3.92328643798828125 2.5853579044342041 190 153 112 255 1
6.93455362319946289 3.79287385940551758 2.55504989624023438 190 153 112 255 1
6.89440774917602539 3.77935171127319336 2.54907512664794922 190 153 112 255 1
7.47711420059204102 3.99443602561950684 2.73336243629455566 190 153 112 255 1
7.27457284927368164 3.93422269821166992 2.58108186721801758 190 153 112 255 1
7.14226484298706055 3.88211798667907715 2.57436203956604004 190 153 112 255 1
7.17941570281982422 3.89222073554992676 2.62047171592712402 190 153 112 255 1
7.17638254165649414 3.89841246604919434 2.63507580757141113 190 153 112 255 1
6.96277809143066406 3.8025815486907959 2.56670832633972168 190 153 112 255 1
7.47892904281616211 4.00480222702026367 2.58175396919250488 190 153 112 255 1
7.44405698776245117 3.99118876457214355 2.68287491798400879 190 153 112 255 1
7.48282384872436523 4.00512981414794922 2.71845245361328125 190 153 112 255 1
7.45194911956787109 3.99552178382873535 2.65211224555969238 190 153 112 255 1
7.46552848815917969 4.00467014312744141 2.62138199806213379 190 153 112 255 1
7.22788190841674805 3.9144899845123291 2.64765572547912598 190 153 112 255 1
7.57924127578735352 4.12041616439819336 2.30332541465759277 190 153 112 255 1
7.55917167663574219 4.05709648132324219 2.36641097068786621 190 153 112 255 1
7.56802129745483398 4.06407880783081055 2.34858059883117676 190 153 112 255 1
7.59141635894775391 4.0512232780456543 2.46035122871398926 190 153 112 255 1
7.57776832580566406 4.04484701156616211 2.51160049438476562 190 153 112 255 1
7.50174903869628906 4.01711463928222656 2.51638245582580566 190 153 112 255 1
7.68700075149536133 4.13386297225952148 2.35060715675354004 190 153 112 255 1
7.64852380752563477 4.11661291122436523 2.34318828582763672 190 153 112 255 1
7.6724700927734375 4.13253450393676758 2.33316779136657715 190 153 112 255 1
7.68491315841674805 4.11357450485229492 2.37282729148864746 190 153 112 255 1
7.64996194839477539 4.12820863723754883 2.32408761978149414 190 153 112 255 1
7.61577177047729492 4.0981602668762207 2.34087228775024414 190 153 112 255 1
7.60224103927612305 4.08292341232299805 2.34717321395874023 190 153 112 255 1
7.61335611343383789 4.07701683044433594 2.36556792259216309 190 153 112 255 1
7.54154396057128906 4.03428125381469727 2.40500926971435547 190 153 112 255 1
7.54642295837402344 4.03160524368286133 2.48010659217834473 190 153 112 255 1
7.53703832626342773 4.05917453765869141 2.38357043266296387 190 153 112 255 1
7.58243322372436523 4.04910564422607422 2.42734718322753906 190 153 112 255 1
7.58937740325927734 4.06092023849487305 2.41113519668579102 190 153 112 255 1
7.67068195343017578 4.08785152435302734 2.49415969848632812 190 153 112 255 1
7.61401081085205078 4.07219743728637695 2.39775514602661133 190 153 112 255 1
7.60604047775268555 4.10981845855712891 2.31236505508422852 190 153 112 255 1
7.61964797973632812 4.06318998336791992 2.49138951301574707 190 153 112 255 1
7.64474964141845703 4.07042598724365234 2.46955204010009766 190 153 112 255 1
7.6544032096862793 4.07672548294067383 2.44019579887390137 190 153 112 255 1
7.75604534149169922 4.11924982070922852 2.48120498657226562 190 153 112 255 1
7.66853523254394531 4.09650278091430664 2.4008793830871582 190 153 112 255 1
7.73360586166381836 4.10632801055908203 2.46810364723205566 190 153 112 255 1
7.72315788269042969 4.10538816452026367 2.52920794486999512 190 153 112 255 1
7.70183467864990234 4.09575605392456055 2.47898960113525391 190 153 112 255 1
7.6497344970703125 4.05279254913330078 2.80709671974182129 190 153 112 255 1
7.51965665817260742 4.01216268539428711 2.74152350425720215 190 153 112 255 1
7.56590175628662109 4.02094173431396484 2.76769828796386719 190 153 112 255 1
7.59683847427368164 4.03623819351196289 2.78111457824707031 190 153 112 255 1
7.53136730194091797 4.00992250442504883 2.75783824920654297 190 153 112 255 1
7.69521284103393555 4.08225822448730469 2.78352665901184082 190 153 112 255 1
7.75185823440551758 4.10510778427124023 2.7937929630279541 190 153 112 255 1
7.71170473098754883 4.07748794555664062 2.83630275726318359 190 153 112 255 1
7.65218448638916016 4.0693364143371582 2.62650012969970703 190 153 112 255 1
7.6024622917175293 4.05220985412597656 2.56902980804443359 190 153 112 255 1
7.65192890167236328 4.07421112060546875 2.56696271896362305 190 153 112 255 1
7.52609157562255859 4.02472734451293945 2.6492457389831543 190 153 112 255 1
7.5768427848815918 4.04517602920532227 2.66449642181396484 190 153 112 255 1
7.49063682556152344 4.00949668884277344 2.67966651916503906 190 153 112 255 1
7.67547702789306641 4.06241035461425781 2.8194880485534668 190 153 112 255 1
7.57363414764404297 4.03408193588256836 2.74588155746459961 190 153 112 255 1
7.6241145133972168 4.05370044708251953 2.74987626075744629 190 153 112 255 1
7.65099477767944336 4.05248117446899414 2.79038310050964355 190 153 112 255 1
7.76349687576293945 4.09785270690917969 2.85255527496337891 190 153 112 255 1
7.67319393157958984 4.07957553863525391 2.64726662635803223 190 153 112 255 1
7.64618396759033203 4.07019948959350586 2.67801403999328613 190 153 112 255 1
7.58072996139526367 4.04141855239868164 2.70586752891540527 190 153 112 255 1
7.77292728424072266 4.15366935729980469 2.54516315460205078 190 153 112 255 1
7.76081323623657227 4.12945222854614258 2.58031034469604492 190 153 112 255 1
7.73338747024536133 4.10172033309936523 2.75938963890075684 190 153 112 255 1
7.67615127563476562 4.08300447463989258 2.69876194000244141 190 153 112 255 1
7.76167821884155273 4.12974262237548828 2.66061258316040039 190 153 112 255 1
7.76954889297485352 4.13652992248535156 2.7042696475982666 190 153 112 255 1
7.76590967178344727 4.13449335098266602 2.62200713157653809 190 153 112 255 1
7.75737524032592773 4.11793851852416992 2.70726561546325684 190 153 112 255 1
7.77016353607177734 4.12994003295898438 2.75321674346923828 190 153 112 255 1
7.76345586776733398 4.13486909866333008 2.53935694694519043 190 153 112 255 1
7.73053216934204102 4.10518169403076172 2.69574809074401855 190 153 112 255 1
7.70605230331420898 4.09662866592407227 2.58323574066162109 190 153 112 255 1
7.75944423675537109 4.1217656135559082 2.62287640571594238 190 153 112 255 1
7.73318147659301758 4.10466146469116211 2.65899896621704102 190 153 112 255 1
7.52367258071899414 4.02010488510131836 2.58289599418640137 190 153 112 255 1
7.55711030960083008 4.03300666809082031 2.62864184379577637 190 153 112 255 1
7.59688758850097656 4.04987573623657227 2.64113688468933105 190 153 112 255 1
6.1078038215637207 3.50940656661987305 1.17981541156768799 190 153 112 255 1
6.17450284957885742 3.57392764091491699 0.473905116319656372 190 153 112 255 1
6.19978570938110352 3.58437800407409668 0.481896817684173584 190 153 112 255 1
6.20388078689575195 3.58329224586486816 0.54782414436340332 190 153 112 255 1
6.05913639068603516 3.55044150352478027 0.037324659526348114 190 153 112 255 1
6.13621377944946289 3.57544970512390137 0.0506507419049739838 190 153 112 255 1
6.16828775405883789 3.58322548866271973 0.1666373610496521 190 153 112 255 1
6.07158041000366211 3.53579568862915039 0.161869168281555176 190 153 112 255 1
6.13294029235839844 3.56645536422729492 0.155366554856300354 190 153 112 255 1
6.16563034057617188 3.58295845985412598 0.200682520866394043 190 153 112 255 1
6.11145210266113281 3.55082488059997559 0.158269003033638 190 153 112 255 1
6.18499994277954102 3.5824582576751709 0.375 190 153 112 255 1
6.14832162857055664 3.56481742858886719 0.408588290214538574 190 153 112 255 1
6.08288192749023438 3.52499985694885254 0.442499995231628418 190 153 112 255 1
6.15815305709838867 3.56783890724182129 0.510383665561676025 190 153 112 255 1
6.18055009841918945 3.57821083068847656 0.0542805008590221405 190 153 112 255 1
6.17413139343261719 3.5827639102935791 0.237353086471557617 190 153 112 255 1
6.18428897857666016 3.58399200439453125 0.296913594007492065 190 153 112 255 1
6.15499973297119141 3.57184600830078125 0.297499984502792358 190 153 112 255 1
6.08284664154052734 3.53413844108581543 0.24750693142414093 190 153 112 255 1
6.13996601104736328 3.5590972900390625 0.338190764188766479 190 153 112 255 1
6.13523292541503906 3.55249977111816406 0.409687519073486328 190 153 112 255 1
6.08040618896484375 3.5277562141418457 0.332487940788269043 190 153 112 255 1
6.19498014450073242 3.58543181419372559 0.447778552770614624 190 153 112 255 1
6.14838123321533203 3.5741276741027832 0.131257221102714539 190 153 112 255 1
6.10785484313964844 3.56337499618530273 0.117467604577541351 190 153 112 255 1
6.09117984771728516 3.52568817138671875 0.542500019073486328 190 153 112 255 1
6.1208953857421875 3.54288578033447266 0.4375 190 153 112 255 1
6.12746715545654297 3.54440522193908691 0.505156278610229492 190 153 112 255 1
6.13732576370239258 3.5460970401763916 0.588816225528717041 190 153 112 255 1
6.14407920837402344 3.55409908294677734 0.520466446876525879 190 153 112 255 1
6.14225482940673828 3.56679296493530273 0.252499997615814209 190 153 112 255 1
6.12772274017333984 3.55550956726074219 0.239374995231628418 190 153 112 255 1
6.11111831665039062 3.54609322547912598 0.22999998927116394 190 153 112 255 1
6.12017154693603516 3.54490280151367188 0.356585830450057983 190 153 112 255 1
6.25993490219116211 3.55718874931335449 0.0477634817361831665 190 153 112 255 1
6.05479860305786133 3.5443112850189209 0.128901213407516479 190 153 112 255 1
6.05451107025146484 3.5445866584777832 0.0866552442312240601 190 153 112 255 1
6.03584623336791992 3.52103352546691895 0.128941670060157776 190 153 112 255 1
6.21499967575073242 3.57875394821166992 0.854999959468841553 190 153 112 255 1
6.14695930480957031 3.54420161247253418 0.739662110805511475 190 153 112 255 1
6.18424510955810547 3.56739425659179688 0.847499966621398926 190 153 112 255 1
6.15533065795898438 3.54209327697753906 0.887878775596618652 190 153 112 255 1
