ply
format ascii 1.0
element vertex 216
property float x
property float y
property float z
property uchar red
property uchar green
property uchar blue
property uchar alpha
property uint label
end_header
4.27945947647094727 7.9383087158203125 0.790302097797393799 255 0 246 218 38
4.3038334846496582 7.97444963455200195 0.792740523815155029 255 0 246 218 38
4.37757158279418945 7.85890102386474609 0.824253857135772705 255 0 246 218 38
4.43948793411254883 7.66458940505981445 0.80529099702835083 255 0 246 218 38
4.37420654296875 7.65083074569702148 0.777741730213165283 255 0 246 218 38
4.37946987152099609 7.6368107795715332 0.740088999271392822 255 0 246 218 38
4.34701871871948242 7.67108249664306641 0.762134432792663574 255 0 246 218 38
4.35598421096801758 7.66383457183837891 0.780803322792053223 255 0 246 218 38
4.34859704971313477 7.66986227035522461 0.818924605846405029 255 0 246 218 38
4.34314489364624023 7.66371488571166992 0.804930269718170166 255 0 246 218 38
4.44221830368041992 7.88789033889770508 0.825425565242767334 255 0 246 218 38
4.43247461318969727 7.84652280807495117 0.82699131965637207 255 0 246 218 38
4.54721975326538086 7.8616633415222168 0.826913833618164062 255 0 246 218 38
4.48108291625976562 7.89638900756835938 0.827644526958465576 255 0 246 218 38
4.52037811279296875 7.90305328369140625 0.824270904064178467 255 0 246 218 38
4.30846452713012695 7.77889823913574219 0.822041988372802734 255 0 246 218 38
4.28562307357788086 7.83922958374023438 0.817979931831359863 255 0 246 218 38
4.28451442718505859 7.78332853317260742 0.818992972373962402 255 0 246 218 38
4.32051849365234375 7.69436836242675781 0.825424313545227051 255 0 246 218 38
4.29508686065673828 7.71743869781494141 0.819851458072662354 255 0 246 218 38
4.34112787246704102 7.99684667587280273 0.790613949298858643 255 0 246 218 38
4.51076173782348633 7.81313753128051758 0.825738966464996338 255 0 246 218 38
4.55697727203369141 7.82487678527832031 0.824723184108734131 255 0 246 218 38
4.50842761993408203 7.74605751037597656 0.822491466999053955 255 0 246 218 38
4.45845985412597656 7.80246305465698242 0.825915277004241943 255 0 246 218 38
4.53973722457885742 7.77937555313110352 0.823651909828186035 255 0 246 218 38
4.52584695816040039 7.70593500137329102 0.815548956394195557 255 0 246 218 38
4.38138675689697266 7.62637090682983398 0.705724596977233887 255 0 246 218 38
4.35514116287231445 7.64743566513061523 0.703856766223907471 255 0 246 218 38
4.33521270751953125 7.97746944427490234 0.804865121841430664 255 0 246 218 38
4.39299583435058594 7.99418544769287109 0.805339336395263672 255 0 246 218 38
4.33456850051879883 7.89643096923828125 0.819353878498077393 255 0 246 218 38
4.35597419738769531 7.95518779754638672 0.816220641136169434 255 0 246 218 38
4.33331727981567383 7.94187402725219727 0.814661324024200439 255 0 246 218 38
4.37839269638061523 7.99297094345092773 0.794484615325927734 255 0 246 218 38
4.43578433990478516 7.700897216796875 0.821969151496887207 255 0 246 218 38
4.45507574081420898 7.71314430236816406 0.82052314281463623 255 0 246 218 38
4.32906818389892578 7.78199529647827148 0.824882149696350098 255 0 246 218 38
4.35882472991943359 7.73456239700317383 0.822193324565887451 255 0 246 218 38
4.31792116165161133 7.72212123870849609 0.824734032154083252 255 0 246 218 38
4.31700277328491211 7.67878198623657227 0.815413534641265869 255 0 246 218 38
4.3987431526184082 7.8042302131652832 0.824086666107177734 255 0 246 218 38
4.45667457580566406 7.98304986953735352 0.791736960411071777 255 0 246 218 38
4.48494243621826172 7.93734884262084961 0.820453405380249023 255 0 246 218 38
4.40736865997314453 7.89967727661132812 0.824727356433868408 255 0 246 218 38
4.41095209121704102 7.96381378173828125 0.817387521266937256 255 0 246 218 38
4.44713115692138672 7.95413970947265625 0.819713711738586426 255 0 246 218 38
4.48004579544067383 7.96329307556152344 0.813024640083312988 255 0 246 218 38
4.41939210891723633 7.97861766815185547 0.814627766609191895 255 0 246 218 38
4.45153570175170898 7.98287200927734375 0.804719030857086182 255 0 246 218 38
4.41210174560546875 7.991058349609375 0.792885482311248779 255 0 246 218 38
4.2755274772644043 7.9089055061340332 0.806962728500366211 255 0 246 218 38
4.27551794052124023 7.85380029678344727 0.814943313598632812 255 0 246 218 38
4.29888343811035156 7.88775539398193359 0.815684258937835693 255 0 246 218 38
4.25817537307739258 7.88578891754150391 0.802943766117095947 255 0 246 218 38
4.49058437347412109 7.95908594131469727 0.793770551681518555 255 0 246 218 38
4.37520122528076172 7.64854717254638672 0.804673671722412109 255 0 246 218 38
4.41156816482543945 7.67013025283813477 0.817087471485137939 255 0 246 218 38
4.46277046203613281 7.67173624038696289 0.816124141216278076 255 0 246 218 38
4.56111860275268555 7.84998607635498047 0.816369950771331787 255 0 246 218 38
4.54934072494506836 7.87287998199462891 0.809925317764282227 255 0 246 218 38
4.56918191909790039 7.80827999114990234 0.81383746862411499 255 0 246 218 38
4.50545787811279297 8.02350902557373047 0.264875233173370361 255 0 246 218 38
4.5118565559387207 8.00552558898925781 0.284869581460952759 255 0 246 218 38
4.50284194946289062 7.996856689453125 0.374455034732818604 255 0 246 218 38
4.51751708984375 8.07413959503173828 0.138072401285171509 255 0 246 218 38
4.53124713897705078 7.93773889541625977 0.280319303274154663 255 0 246 218 38
4.53662109375 7.91554069519042969 0.299138337373733521 255 0 246 218 38
4.52232933044433594 7.89762401580810547 0.271007239818572998 255 0 246 218 38
4.51106691360473633 7.93214654922485352 0.491827458143234253 255 0 246 218 38
4.49087238311767578 7.97845029830932617 0.495171040296554565 255 0 246 218 38
4.49233675003051758 7.98286056518554688 0.460088908672332764 255 0 246 218 38
4.5022120475769043 7.93500614166259766 0.539039850234985352 255 0 246 218 38
4.49160003662109375 7.96448040008544922 0.543398201465606689 255 0 246 218 38
4.53455114364624023 8.01554298400878906 0.162698835134506226 255 0 246 218 38
4.53521203994750977 7.96419334411621094 0.235538393259048462 255 0 246 218 38
4.54773139953613281 7.97813940048217773 0.164518415927886963 255 0 246 218 38
4.51143360137939453 8.05520820617675781 0.16683785617351532 255 0 246 218 38
4.51402139663696289 8.02209091186523438 0.21658855676651001 255 0 246 218 38
4.52378416061401367 8.01803874969482422 0.190345883369445801 255 0 246 218 38
4.51214933395385742 7.90428876876831055 0.519174635410308838 255 0 246 218 38
4.48728752136230469 8.09441375732421875 0.165788918733596802 255 0 246 218 38
4.52344560623168945 7.95726585388183594 0.333448797464370728 255 0 246 218 38
4.51899623870849609 7.97342205047607422 0.336965352296829224 255 0 246 218 38
4.50648927688598633 8.00174713134765625 0.337053656578063965 255 0 246 218 38
4.4682464599609375 8.14553070068359375 0.144117996096611023 255 0 246 218 38
4.53402042388916016 7.93779373168945312 0.302604228258132935 255 0 246 218 38
4.52643299102783203 7.97944211959838867 0.258054882287979126 255 0 246 218 38
4.51447486877441406 7.95381832122802734 0.420702904462814331 255 0 246 218 38
4.50073003768920898 7.98894882202148438 0.416892945766448975 255 0 246 218 38
4.47814321517944336 7.88344526290893555 0.662093281745910645 255 0 246 218 38
4.48294878005981445 7.90102910995483398 0.688108861446380615 255 0 246 218 38
4.47770929336547852 7.89208126068115234 0.652755618095397949 255 0 246 218 38
4.50081110000610352 7.92694807052612305 0.602722108364105225 255 0 246 218 38
4.48418378829956055 7.96395015716552734 0.60304105281829834 255 0 246 218 38
4.49073696136474609 7.91788196563720703 0.627241373062133789 255 0 246 218 38
4.4545440673828125 7.9034571647644043 0.697042465209960938 255 0 246 218 38
4.4718785285949707 7.87124443054199219 0.699101090431213379 255 0 246 218 38
4.48298501968383789 7.89049482345581055 0.58518373966217041 255 0 246 218 38
4.49411678314208984 7.85524272918701172 0.749727427959442139 255 0 246 218 38
4.4826502799987793 7.88860940933227539 0.732505619525909424 255 0 246 218 38
4.49640226364135742 7.90073156356811523 0.755229413509368896 255 0 246 218 38
4.53896522521972656 7.85550689697265625 0.786749839782714844 255 0 246 218 38
4.51226520538330078 7.86948966979980469 0.768687188625335693 255 0 246 218 38
4.45110845565795898 7.91716957092285156 0.672816812992095947 255 0 246 218 38
4.52737808227539062 7.81527233123779297 0.783818066120147705 255 0 246 218 38
4.47537469863891602 7.96190738677978516 0.663829803466796875 255 0 246 218 38
4.48725748062133789 7.9303436279296875 0.674752175807952881 255 0 246 218 38
4.465606689453125 7.96306514739990234 0.724446117877960205 255 0 246 218 38
4.47458314895629883 7.94986963272094727 0.745971918106079102 255 0 246 218 38
4.48190736770629883 7.92170476913452148 0.727268755435943604 255 0 246 218 38
4.49270534515380859 7.90975332260131836 0.577171027660369873 255 0 246 218 38
4.44691848754882812 7.95358514785766602 0.576332032680511475 255 0 246 218 38
4.46434879302978516 7.91059303283691406 0.570587515830993652 255 0 246 218 38
4.47603607177734375 7.91580438613891602 0.604284465312957764 255 0 246 218 38
4.45247220993041992 7.94254732131958008 0.599870741367340088 255 0 246 218 38
4.54903936386108398 8.01165580749511719 0.139134019613265991 255 0 246 218 38
4.55147790908813477 7.96136283874511719 0.138458713889122009 255 0 246 218 38
4.56054210662841797 7.97571086883544922 0.135649010539054871 255 0 246 218 38
4.55315208435058594 7.84774541854858398 0.797048568725585938 255 0 246 218 38
4.5502772331237793 7.77305030822753906 0.806057631969451904 255 0 246 218 38
4.54331541061401367 7.86892271041870117 0.323606699705123901 255 0 246 218 38
4.48508310317993164 7.92775821685791016 0.536222100257873535 255 0 246 218 38
4.53695106506347656 7.82093906402587891 0.193348675966262817 255 0 246 218 38
4.46036958694458008 7.92013168334960938 0.537160992622375488 255 0 246 218 38
4.44790744781494141 7.96670961380004883 0.511539697647094727 255 0 246 218 38
4.44932985305786133 7.94786596298217773 0.521494448184967041 255 0 246 218 38
4.46727705001831055 7.93852615356445312 0.514313638210296631 255 0 246 218 38
4.53537178039550781 7.84340906143188477 0.518576622009277344 255 0 246 218 38
4.52424812316894531 7.86345624923706055 0.499622493982315063 255 0 246 218 38
4.48524951934814453 7.90763139724731445 0.510469317436218262 255 0 246 218 38
4.49942302703857422 7.89058542251586914 0.525957942008972168 255 0 246 218 38
4.53131818771362305 7.8397831916809082 0.54226231575012207 255 0 246 218 38
4.50450515747070312 7.84972143173217773 0.526197135448455811 255 0 246 218 38
4.51549768447875977 7.85957622528076172 0.535445451736450195 255 0 246 218 38
4.51152753829956055 7.88038396835327148 0.485561788082122803 255 0 246 218 38
4.49273824691772461 7.9107513427734375 0.474300771951675415 255 0 246 218 38
4.52488088607788086 7.8340153694152832 0.157617852091789246 255 0 246 218 38
4.50647974014282227 7.94524002075195312 0.467876434326171875 255 0 246 218 38
4.49700307846069336 7.85772848129272461 0.656643569469451904 255 0 246 218 38
4.48628759384155273 7.86425304412841797 0.659424483776092529 255 0 246 218 38
4.49435329437255859 7.86536073684692383 0.691379845142364502 255 0 246 218 38
4.48545646667480469 7.85350179672241211 0.654892504215240479 255 0 246 218 38
4.52592802047729492 7.80440711975097656 0.704812347888946533 255 0 246 218 38
4.51784086227416992 7.8257598876953125 0.644964516162872314 255 0 246 218 38
4.46940279006958008 7.84609174728393555 0.612197339534759521 255 0 246 218 38
4.45799398422241211 7.83933258056640625 0.590134382247924805 255 0 246 218 38
4.4786686897277832 7.89913272857666016 0.550325453281402588 255 0 246 218 38
4.53829431533813477 7.79503488540649414 0.634689807891845703 255 0 246 218 38
4.53266763687133789 7.79798364639282227 0.651540458202362061 255 0 246 218 38
4.53761529922485352 7.74042987823486328 0.769006729125976562 255 0 246 218 38
4.54512643814086914 7.72326040267944336 0.79979175329208374 255 0 246 218 38
4.51510238647460938 7.8096003532409668 0.755189239978790283 255 0 246 218 38
4.53171062469482422 7.76867389678955078 0.772184252738952637 255 0 246 218 38
4.5092620849609375 7.84149265289306641 0.628249585628509521 255 0 246 218 38
4.49571704864501953 7.87878751754760742 0.577771425247192383 255 0 246 218 38
4.50502490997314453 7.84783554077148438 0.555900216102600098 255 0 246 218 38
4.49410247802734375 7.87349796295166016 0.564019083976745605 255 0 246 218 38
4.50154209136962891 7.85400676727294922 0.606067955493927002 255 0 246 218 38
4.48651933670043945 7.84746313095092773 0.603156328201293945 255 0 246 218 38
4.51950931549072266 7.83586359024047852 0.58561474084854126 255 0 246 218 38
4.49229812622070312 7.87223672866821289 0.590791463851928711 255 0 246 218 38
4.64841461181640625 7.707672119140625 0.136758416891098022 255 0 246 218 38
4.55459070205688477 7.87677145004272461 0.141332134604454041 255 0 246 218 38
4.55727338790893555 7.8553619384765625 0.306161791086196899 255 0 246 218 38
4.54540157318115234 7.88028240203857422 0.293600112199783325 255 0 246 218 38
4.55947256088256836 7.82577848434448242 0.34330180287361145 255 0 246 218 38
4.56717681884765625 7.76476573944091797 0.512772083282470703 255 0 246 218 38
4.55869913101196289 7.81786441802978516 0.238884478807449341 255 0 246 218 38
4.60188007354736328 7.77143096923828125 0.185941293835639954 255 0 246 218 38
4.55791282653808594 7.82632255554199219 0.196537300944328308 255 0 246 218 38
4.59462070465087891 7.79549741744995117 0.165556848049163818 255 0 246 218 38
4.60993194580078125 7.75526762008666992 0.196492433547973633 255 0 246 218 38
4.59248208999633789 7.81843709945678711 0.141441494226455688 255 0 246 218 38
4.54546403884887695 7.83477401733398438 0.166516363620758057 255 0 246 218 38
4.59742355346679688 7.73530912399291992 0.398005664348602295 255 0 246 218 38
4.61524105072021484 7.70539426803588867 0.329724371433258057 255 0 246 218 38
4.60793972015380859 7.72500467300415039 0.366175979375839233 255 0 246 218 38
4.61086702346801758 7.72883081436157227 0.344562441110610962 255 0 246 218 38
4.6076054573059082 7.74610185623168945 0.320996642112731934 255 0 246 218 38
4.59458589553833008 7.75958347320556641 0.36757361888885498 255 0 246 218 38
4.593963623046875 7.77743768692016602 0.325183957815170288 255 0 246 218 38
4.58462142944335938 7.75875186920166016 0.403606027364730835 255 0 246 218 38
4.57978010177612305 7.79374408721923828 0.353222429752349854 255 0 246 218 38
4.62746572494506836 7.74223423004150391 0.154765233397483826 255 0 246 218 38
4.62516117095947266 7.70585489273071289 0.226419016718864441 255 0 246 218 38
4.6304163932800293 7.71022605895996094 0.18125055730342865 255 0 246 218 38
4.56586265563964844 7.834228515625 0.32282179594039917 255 0 246 218 38
4.57149744033813477 7.76200723648071289 0.533366739749908447 255 0 246 218 38
4.57459783554077148 7.76494741439819336 0.442782789468765259 255 0 246 218 38
4.57732534408569336 7.75667810440063477 0.452971160411834717 255 0 246 218 38
4.59200668334960938 7.71746349334716797 0.466776341199874878 255 0 246 218 38
4.57589149475097656 7.74782705307006836 0.508992969989776611 255 0 246 218 38
4.58730077743530273 7.71506452560424805 0.512072324752807617 255 0 246 218 38
4.58404016494750977 7.74138832092285156 0.465385198593139648 255 0 246 218 38
4.57564163208007812 7.71844911575317383 0.549493372440338135 255 0 246 218 38
4.55857563018798828 7.85006856918334961 0.166179031133651733 255 0 246 218 38
4.58834362030029297 7.70982265472412109 0.440081775188446045 255 0 246 218 38
4.59009647369384766 7.73314237594604492 0.434309661388397217 255 0 246 218 38
4.60705280303955078 7.70587730407714844 0.411110997200012207 255 0 246 218 38
4.60816478729248047 7.75306224822998047 0.243689730763435364 255 0 246 218 38
4.60672664642333984 7.74483251571655273 0.295777857303619385 255 0 246 218 38
4.61751270294189453 7.7262120246887207 0.293169587850570679 255 0 246 218 38
4.62624931335449219 7.7023921012878418 0.29364129900932312 255 0 246 218 38
4.55375957489013672 7.74441337585449219 0.67948460578918457 255 0 246 218 38
4.56748867034912109 7.72767257690429688 0.64757925271987915 255 0 246 218 38
4.57469844818115234 7.73902654647827148 0.571542978286743164 255 0 246 218 38
4.56224203109741211 7.72168684005737305 0.615569531917572021 255 0 246 218 38
4.56445550918579102 7.7377476692199707 0.612669527530670166 255 0 246 218 38
4.56245183944702148 7.77898550033569336 0.557346820831298828 255 0 246 218 38
4.54485893249511719 7.78541135787963867 0.601924359798431396 255 0 246 218 38
4.54613113403320312 7.78069782257080078 0.635191619396209717 255 0 246 218 38
4.55259466171264648 7.76129388809204102 0.816885054111480713 255 0 246 218 38
4.54698753356933594 7.75592756271362305 0.71827930212020874 255 0 246 218 38
4.5509343147277832 7.73358678817749023 0.708715915679931641 255 0 246 218 38
4.5575108528137207 7.72132062911987305 0.672035813331604004 255 0 246 218 38
