ply
format ascii 1.0
element vertex 533
property float x
property float y
property float z
property uchar red
property uchar green
property uchar blue
property uchar alpha
property uint label
end_header
2.21773791313171387 5.87989664077758789 0.469320327043533325 122 71 130 252 4
2.44791388511657715 6.20935440063476562 0.506745517253875732 122 71 130 252 4
2.41674232482910156 6.19731521606445312 0.505938351154327393 122 71 130 252 4
2.44616508483886719 6.05750751495361328 0.503717303276062012 122 71 130 252 4
2.47565388679504395 6.12726306915283203 0.502386271953582764 122 71 130 252 4
2.3379366397857666 6.29120159149169922 0.519451797008514404 122 71 130 252 4
2.33829545974731445 6.24595451354980469 0.513337254524230957 122 71 130 252 4
2.28308534622192383 5.84604978561401367 0.493799984455108643 122 71 130 252 4
2.24410009384155273 5.87673425674438477 0.484637558460235596 122 71 130 252 4
2.27955412864685059 5.87499570846557617 0.497544616460800171 122 71 130 252 4
2.45586562156677246 6.34705495834350586 0.522941470146179199 122 71 130 252 4
2.50187182426452637 6.37327003479003906 0.523426234722137451 122 71 130 252 4
2.53639531135559082 6.33053302764892578 0.514985084533691406 122 71 130 252 4
2.41615509986877441 6.27590656280517578 0.512426912784576416 122 71 130 252 4
2.46570897102355957 6.4221491813659668 0.516179084777832031 122 71 130 252 4
2.52783083915710449 6.45983791351318359 0.514149785041809082 122 71 130 252 4
2.51381731033325195 6.43563413619995117 0.518557190895080566 122 71 130 252 4
2.44568848609924316 6.43337106704711914 0.510664999485015869 122 71 130 252 4
2.43849062919616699 6.4097442626953125 0.516187489032745361 122 71 130 252 4
2.5307161808013916 6.26048040390014648 0.508310198783874512 122 71 130 252 4
2.44102692604064941 6.28597068786621094 0.513982951641082764 122 71 130 252 4
2.48874998092651367 5.99874973297119141 0.50528407096862793 122 71 130 252 4
2.55053448677062988 5.94091939926147461 0.506044685840606689 122 71 130 252 4
2.14122414588928223 6.24457883834838867 0.486422598361968994 122 71 130 252 4
2.24259710311889648 6.1790308952331543 0.510637998580932617 122 71 130 252 4
2.18263149261474609 6.16074848175048828 0.495681524276733398 122 71 130 252 4
2.20989632606506348 6.13977384567260742 0.503129839897155762 122 71 130 252 4
2.25888419151306152 6.21346902847290039 0.513093292713165283 122 71 130 252 4
2.15229701995849609 6.20754909515380859 0.48539009690284729 122 71 130 252 4
2.22837972640991211 5.9469761848449707 0.484737575054168701 122 71 130 252 4
2.31784343719482422 5.83282327651977539 0.496018975973129272 122 71 130 252 4
2.38515949249267578 5.86898136138916016 0.505056560039520264 122 71 130 252 4
2.19878697395324707 6.2200312614440918 0.50780254602432251 122 71 130 252 4
2.1747746467590332 6.27453947067260742 0.500620484352111816 122 71 130 252 4
2.20131230354309082 6.28991174697875977 0.507019937038421631 122 71 130 252 4
2.3756248950958252 6.10500001907348633 0.505044937133789062 122 71 130 252 4
2.36581254005432129 6.15861892700195312 0.505822241306304932 122 71 130 252 4
2.1378486156463623 6.31348848342895508 0.48388826847076416 122 71 130 252 4
2.21381139755249023 6.08071088790893555 0.498998939990997314 122 71 130 252 4
2.19557499885559082 6.03754043579101562 0.484921276569366455 122 71 130 252 4
2.26973676681518555 5.91632938385009766 0.499523639678955078 122 71 130 252 4
2.26198339462280273 5.94513130187988281 0.499560117721557617 122 71 130 252 4
2.40312504768371582 6.03999996185302734 0.504113674163818359 122 71 130 252 4
2.52999973297119141 6.09000015258789062 0.503249168395996094 122 71 130 252 4
2.51896071434020996 6.15770244598388672 0.503488779067993164 122 71 130 252 4
2.28575301170349121 6.25254058837890625 0.518140792846679688 122 71 130 252 4
2.24431896209716797 6.26301193237304688 0.516743063926696777 122 71 130 252 4
2.23938322067260742 6.31285619735717773 0.509148180484771729 122 71 130 252 4
2.47750616073608398 5.93813228607177734 0.506325960159301758 122 71 130 252 4
2.43185067176818848 5.93031930923461914 0.507067263126373291 122 71 130 252 4
2.51713442802429199 5.88523387908935547 0.495496362447738647 122 71 130 252 4
2.18197464942932129 6.31483173370361328 0.496737569570541382 122 71 130 252 4
2.21828556060791016 6.32147216796875 0.504578590393066406 122 71 130 252 4
2.32398891448974609 6.06305313110351562 0.505054950714111328 122 71 130 252 4
2.24637460708618164 6.09105730056762695 0.506781637668609619 122 71 130 252 4
2.28937482833862305 6.13374996185302734 0.507739722728729248 122 71 130 252 4
2.2851560115814209 5.96890592575073242 0.505189359188079834 122 71 130 252 4
2.23365569114685059 6.03667259216308594 0.500613868236541748 122 71 130 252 4
2.27499985694885254 6.02500009536743164 0.50644993782043457 122 71 130 252 4
2.24595499038696289 5.98184299468994141 0.497622579336166382 122 71 130 252 4
2.46812820434570312 5.87455034255981445 0.496215879917144775 122 71 130 252 4
2.48350238800048828 5.90019750595092773 0.503852665424346924 122 71 130 252 4
2.37723469734191895 5.84217405319213867 0.495166301727294922 122 71 130 252 4
2.37468767166137695 6.22093725204467773 0.509563624858856201 122 71 130 252 4
2.32376718521118164 5.88148164749145508 0.506969749927520752 122 71 130 252 4
2.34922504425048828 5.94690418243408203 0.507067739963531494 122 71 130 252 4
2.34500002861022949 5.99593734741210938 0.506261169910430908 122 71 130 252 4
2.33906865119934082 6.36924886703491211 0.510626077651977539 122 71 130 252 4
2.32960629463195801 6.32729101181030273 0.516485452651977539 122 71 130 252 4
2.38316702842712402 6.31618452072143555 0.519886255264282227 122 71 130 252 4
2.37182927131652832 6.40443325042724609 0.507469475269317627 122 71 130 252 4
2.36354923248291016 6.35414791107177734 0.516759097576141357 122 71 130 252 4
2.27268862724304199 6.32652568817138672 0.51116412878036499 122 71 130 252 4
2.29777288436889648 6.36359643936157227 0.506004273891448975 122 71 130 252 4
2.16690206527709961 6.13768148422241211 0.485805243253707886 122 71 130 252 4
2.41072845458984375 6.38958358764648438 0.516475141048431396 122 71 130 252 4
3.00781631469726562 6.09335422515869141 0.517591595649719238 122 71 130 252 4
2.98193454742431641 6.06742954254150391 0.51418006420135498 122 71 130 252 4
2.96795964241027832 6.09619617462158203 0.518491685390472412 122 71 130 252 4
3.03955745697021484 6.1020965576171875 0.51850438117980957 122 71 130 252 4
2.93569803237915039 6.16491079330444336 0.519862651824951172 122 71 130 252 4
2.99948906898498535 6.16309118270874023 0.522906243801116943 122 71 130 252 4
2.5724937915802002 6.22542333602905273 0.506268024444580078 122 71 130 252 4
2.60459756851196289 6.28217220306396484 0.510925412178039551 122 71 130 252 4
2.58020210266113281 5.90747785568237305 0.497733235359191895 122 71 130 252 4
2.55494379997253418 6.39187383651733398 0.525664687156677246 122 71 130 252 4
2.92161321640014648 6.50981283187866211 0.532378494739532471 122 71 130 252 4
2.94195103645324707 6.53158807754516602 0.523042082786560059 122 71 130 252 4
2.67749977111816406 6.11046838760375977 0.50700068473815918 122 71 130 252 4
2.90122413635253906 6.0771336555480957 0.515284240245819092 122 71 130 252 4
3.01262474060058594 6.35584163665771484 0.506669521331787109 122 71 130 252 4
2.97789502143859863 6.44587421417236328 0.512875914573669434 122 71 130 252 4
2.94684767723083496 6.47577428817749023 0.522368669509887695 122 71 130 252 4
3.04241251945495605 6.25917720794677734 0.506058037281036377 122 71 130 252 4
3.06627798080444336 6.17346858978271484 0.507484555244445801 122 71 130 252 4
2.54374980926513672 6.02374982833862305 0.506127655506134033 122 71 130 252 4
2.56487846374511719 6.05543708801269531 0.504616022109985352 122 71 130 252 4
2.95804309844970703 6.26516199111938477 0.520943164825439453 122 71 130 252 4
2.99249982833862305 6.29374980926513672 0.51759040355682373 122 71 130 252 4
2.60219430923461914 6.38371753692626953 0.519399940967559814 122 71 130 252 4
2.59030508995056152 6.33775043487548828 0.514364004135131836 122 71 130 252 4
2.71499991416931152 6.03812503814697266 0.509335696697235107 122 71 130 252 4
2.87156486511230469 6.15986347198486328 0.515156149864196777 122 71 130 252 4
2.71761035919189453 6.33202075958251953 0.51737523078918457 122 71 130 252 4
2.8071746826171875 6.51050758361816406 0.528240203857421875 122 71 130 252 4
2.88931012153625488 6.50064945220947266 0.533126175403594971 122 71 130 252 4
2.83515238761901855 6.529083251953125 0.526855826377868652 122 71 130 252 4
2.8609926700592041 6.54301309585571289 0.525708794593811035 122 71 130 252 4
2.81187295913696289 6.53160905838012695 0.5238686203956604 122 71 130 252 4
2.72595906257629395 6.42009115219116211 0.535401999950408936 122 71 130 252 4
2.75853204727172852 6.43208026885986328 0.533510506153106689 122 71 130 252 4
2.75641942024230957 6.35213232040405273 0.523737251758575439 122 71 130 252 4
2.67313599586486816 6.34461593627929688 0.514553189277648926 122 71 130 252 4
2.67934226989746094 6.38172388076782227 0.51641690731048584 122 71 130 252 4
2.82546854019165039 6.33650588989257812 0.52667701244354248 122 71 130 252 4
2.75861048698425293 6.33460426330566406 0.523112952709197998 122 71 130 252 4
2.75224637985229492 5.97324466705322266 0.505068004131317139 122 71 130 252 4
2.65198421478271484 5.97917032241821289 0.508818268775939941 122 71 130 252 4
2.66730546951293945 5.94783735275268555 0.505455434322357178 122 71 130 252 4
2.71280789375305176 6.28964710235595703 0.510838091373443604 122 71 130 252 4
2.8124997615814209 6.14750003814697266 0.511128008365631104 122 71 130 252 4
2.76249980926513672 6.20390605926513672 0.510396003723144531 122 71 130 252 4
2.66125011444091797 6.17749977111816406 0.506239533424377441 122 71 130 252 4
2.57613635063171387 6.156768798828125 0.504995465278625488 122 71 130 252 4
2.60562491416931152 6.08750009536743164 0.504790246486663818 122 71 130 252 4
2.9514162540435791 6.21043634414672852 0.527701795101165771 122 71 130 252 4
2.89398479461669922 6.34131050109863281 0.527885317802429199 122 71 130 252 4
2.81755471229553223 6.3676300048828125 0.532428979873657227 122 71 130 252 4
2.81015968322753906 6.4140019416809082 0.530318260192871094 122 71 130 252 4
2.86069655418395996 6.03727006912231445 0.510986983776092529 122 71 130 252 4
2.87637209892272949 6.01478004455566406 0.505288958549499512 122 71 130 252 4
2.56098794937133789 6.40967702865600586 0.526200592517852783 122 71 130 252 4
2.54711651802062988 6.45366191864013672 0.516934573650360107 122 71 130 252 4
2.60918569564819336 6.45763492584228516 0.520461738109588623 122 71 130 252 4
2.62841653823852539 6.4331364631652832 0.526017963886260986 122 71 130 252 4
2.74159932136535645 5.9963679313659668 0.509697198867797852 122 71 130 252 4
2.96859407424926758 6.49656534194946289 0.507590949535369873 122 71 130 252 4
2.65528273582458496 6.48263359069824219 0.519641339778900146 122 71 130 252 4
2.6851346492767334 6.50337314605712891 0.517926871776580811 122 71 130 252 4
2.73471665382385254 6.50424575805664062 0.522829353809356689 122 71 130 252 4
2.94497776031494141 6.33780765533447266 0.520711898803710938 122 71 130 252 4
3.0048065185546875 6.32051181793212891 0.514663040637969971 122 71 130 252 4
2.69729518890380859 6.23606395721435547 0.50952303409576416 122 71 130 252 4
3.05796408653259277 6.11393404006958008 0.515694022178649902 122 71 130 252 4
3.04348850250244141 6.17543125152587891 0.515809834003448486 122 71 130 252 4
2.85008120536804199 6.26353311538696289 0.529841423034667969 122 71 130 252 4
2.84652471542358398 6.30234766006469727 0.526468276977539062 122 71 130 252 4
2.87838363647460938 6.31373977661132812 0.52501755952835083 122 71 130 252 4
2.79555988311767578 6.27386331558227539 0.525319993495941162 122 71 130 252 4
2.95858550071716309 6.39353799819946289 0.52102363109588623 122 71 130 252 4
2.87038922309875488 6.41060066223144531 0.521966040134429932 122 71 130 252 4
2.90705108642578125 6.45988130569458008 0.525002002716064453 122 71 130 252 4
2.81184005737304688 6.22631597518920898 0.518124878406524658 122 71 130 252 4
2.92849135398864746 6.30141210556030273 0.524369537830352783 122 71 130 252 4
2.92064809799194336 6.24693965911865234 0.52720189094543457 122 71 130 252 4
2.80395603179931641 6.46364068984985352 0.532619893550872803 122 71 130 252 4
2.84187459945678711 6.44312810897827148 0.524824440479278564 122 71 130 252 4
2.85276055335998535 6.47414922714233398 0.531676411628723145 122 71 130 252 4
2.8352208137512207 6.05713939666748047 0.512343525886535645 122 71 130 252 4
2.83071064949035645 6.00521612167358398 0.507860898971557617 122 71 130 252 4
2.78805398941040039 6.03674650192260742 0.512294530868530273 122 71 130 252 4
2.79070305824279785 6.10195302963256836 0.510672807693481445 122 71 130 252 4
2.7765350341796875 6.50629711151123047 0.525597989559173584 122 71 130 252 4
2.7550206184387207 6.5209965705871582 0.520750105381011963 122 71 130 252 4
2.78506755828857422 6.53024387359619141 0.521595418453216553 122 71 130 252 4
2.65974569320678711 6.45531988143920898 0.526766657829284668 122 71 130 252 4
2.69179010391235352 6.41398715972900391 0.530981481075286865 122 71 130 252 4
2.65424084663391113 6.41397714614868164 0.525596916675567627 122 71 130 252 4
2.96357560157775879 6.52947378158569336 0.50697624683380127 122 71 130 252 4
2.85296916961669922 6.55620002746582031 0.520753681659698486 122 71 130 252 4
2.88185024261474609 6.56346225738525391 0.521077752113342285 122 71 130 252 4
2.91781711578369141 6.56410408020019531 0.516008436679840088 122 71 130 252 4
3.00528049468994141 6.46369171142578125 0.436065912246704102 122 71 130 252 4
3.0303955078125 6.36316061019897461 0.479483127593994141 122 71 130 252 4
3.06611800193786621 6.25555849075317383 0.411666184663772583 122 71 130 252 4
3.06065154075622559 6.25221538543701172 0.481769859790802002 122 71 130 252 4
3.07275915145874023 6.23031234741210938 0.456874966621398926 122 71 130 252 4
3.09463238716125488 6.15845823287963867 0.405380994081497192 122 71 130 252 4
3.07774615287780762 6.2234959602355957 0.434155941009521484 122 71 130 252 4
3.05551242828369141 6.30476856231689453 0.434238851070404053 122 71 130 252 4
3.03348374366760254 6.3719024658203125 0.443699657917022705 122 71 130 252 4
3.11211061477661133 6.14109420776367188 0.343634575605392456 122 71 130 252 4
3.00112485885620117 6.42415285110473633 0.494809061288833618 122 71 130 252 4
3.12585806846618652 6.14842700958251953 0.305208116769790649 122 71 130 252 4
3.1044466495513916 6.14203023910522461 0.325513601303100586 122 71 130 252 4
3.0598456859588623 6.23549699783325195 0.494890093803405762 122 71 130 252 4
3.08063769340515137 6.16329383850097656 0.490690231323242188 122 71 130 252 4
2.99700260162353516 6.50971841812133789 0.434975862503051758 122 71 130 252 4
2.99016618728637695 6.49676942825317383 0.462149739265441895 122 71 130 252 4
2.96941757202148438 6.54435586929321289 0.422747433185577393 122 71 130 252 4
3.08025002479553223 6.20563364028930664 0.385438024997711182 122 71 130 252 4
3.09583902359008789 6.14773702621459961 0.370025396347045898 122 71 130 252 4
3.09318733215332031 6.17148113250732422 0.346606254577636719 122 71 130 252 4
2.9963076114654541 6.48002099990844727 0.385989278554916382 122 71 130 252 4
3.04975748062133789 6.31687498092651367 0.361249983310699463 122 71 130 252 4
3.03707790374755859 6.35592937469482422 0.379999995231628418 122 71 130 252 4
3.02441167831420898 6.39499998092651367 0.365000009536743164 122 71 130 252 4
3.0704958438873291 6.23386859893798828 0.359912186861038208 122 71 130 252 4
3.10773229598999023 6.09970283508300781 0.441032260656356812 122 71 130 252 4
3.10324883460998535 6.14926052093505859 0.425862491130828857 122 71 130 252 4
3.09698867797851562 6.11715364456176758 0.470086634159088135 122 71 130 252 4
3.11530804634094238 6.13564157485961914 0.389245986938476562 122 71 130 252 4
3.10170745849609375 6.14320850372314453 0.441734552383422852 122 71 130 252 4
2.9900822639465332 6.47996664047241211 0.479587584733963013 122 71 130 252 4
2.97796106338500977 6.52920055389404297 0.483088880777359009 122 71 130 252 4
3.03889894485473633 6.31202983856201172 0.495351284742355347 122 71 130 252 4
3.08052277565002441 6.10820627212524414 0.500164270401000977 122 71 130 252 4
3.03464031219482422 6.37183713912963867 0.409002542495727539 122 71 130 252 4
2.98972558975219727 6.51073694229125977 0.391885668039321899 122 71 130 252 4
2.86008882522583008 6.59499454498291016 0.356184393167495728 122 71 130 252 4
2.85282158851623535 6.59106779098510742 0.387870818376541138 122 71 130 252 4
2.87479090690612793 6.59729194641113281 0.325019180774688721 122 71 130 252 4
2.90214729309082031 6.60534811019897461 0.324620217084884644 122 71 130 252 4
2.88779497146606445 6.60277080535888672 0.368072688579559326 122 71 130 252 4
2.8571627140045166 6.60968875885009766 0.416714638471603394 122 71 130 252 4
2.86251378059387207 6.6142125129699707 0.452286899089813232 122 71 130 252 4
2.8487086296081543 6.62905454635620117 0.477071017026901245 122 71 130 252 4
2.89226555824279785 6.61762762069702148 0.416569560766220093 122 71 130 252 4
2.9213860034942627 6.60588979721069336 0.425321191549301147 122 71 130 252 4
2.89979863166809082 6.61395788192749023 0.457256793975830078 122 71 130 252 4
2.93536639213562012 6.58649015426635742 0.462575584650039673 122 71 130 252 4
2.96408295631408691 6.55851173400878906 0.443645894527435303 122 71 130 252 4
2.82885861396789551 6.61890792846679688 0.492244184017181396 122 71 130 252 4
2.9448540210723877 6.56335020065307617 0.494472473859786987 122 71 130 252 4
2.8894343376159668 6.61243200302124023 0.489302307367324829 122 71 130 252 4
2.9623103141784668 6.54866886138916016 0.388707727193832397 122 71 130 252 4
2.23853731155395508 5.89708948135375977 0.444525152444839478 122 71 130 252 4
2.23627328872680664 5.87440395355224609 0.390170633792877197 122 71 130 252 4
2.19360470771789551 5.87129735946655273 0.430955260992050171 122 71 130 252 4
2.20211291313171387 5.87584877014160156 0.44946897029876709 122 71 130 252 4
2.21936130523681641 5.90375757217407227 0.462373971939086914 122 71 130 252 4
2.2181389331817627 5.92631816864013672 0.469048887491226196 122 71 130 252 4
2.20362138748168945 5.85780096054077148 0.457504063844680786 122 71 130 252 4
2.38631749153137207 5.80363702774047852 0.362620711326599121 122 71 130 252 4
2.35279178619384766 5.78620243072509766 0.347334116697311401 122 71 130 252 4
2.34835410118103027 5.79332733154296875 0.378372997045516968 122 71 130 252 4
2.3168938159942627 5.80617713928222656 0.252581775188446045 122 71 130 252 4
2.2438960075378418 5.82633018493652344 0.263748198747634888 122 71 130 252 4
2.28152561187744141 5.80904245376586914 0.260421037673950195 122 71 130 252 4
2.18536949157714844 5.84688997268676758 0.421624273061752319 122 71 130 252 4
2.21870255470275879 5.81520462036132812 0.404230684041976929 122 71 130 252 4
2.26110458374023438 5.86892271041870117 0.366130441427230835 122 71 130 252 4
2.24710559844970703 5.85699701309204102 0.325312346220016479 122 71 130 252 4
2.27832484245300293 5.86605358123779297 0.33648604154586792 122 71 130 252 4
2.22779464721679688 5.85709190368652344 0.353880167007446289 122 71 130 252 4
2.27541446685791016 5.80309772491455078 0.450644880533218384 122 71 130 252 4
2.24058437347412109 5.8032684326171875 0.400484681129455566 122 71 130 252 4
2.26068735122680664 5.82714080810546875 0.476444989442825317 122 71 130 252 4
2.24113917350769043 5.81206035614013672 0.440157711505889893 122 71 130 252 4
2.35741567611694336 5.78858089447021484 0.316264837980270386 122 71 130 252 4
2.35531973838806152 5.79822158813476562 0.279578924179077148 122 71 130 252 4
2.23900628089904785 5.85135984420776367 0.28782200813293457 122 71 130 252 4
2.2700798511505127 5.86223506927490234 0.282891660928726196 122 71 130 252 4
2.29037284851074219 5.87671232223510742 0.306433707475662231 122 71 130 252 4
2.25304031372070312 5.84917926788330078 0.245211347937583923 122 71 130 252 4
2.27728414535522461 5.85831928253173828 0.23793986439704895 122 71 130 252 4
2.23913335800170898 5.83512449264526367 0.252793371677398682 122 71 130 252 4
2.26125097274780273 5.83664703369140625 0.210466206073760986 122 71 130 252 4
2.29521942138671875 5.84233188629150391 0.197434812784194946 122 71 130 252 4
2.3701779842376709 5.82880210876464844 0.484039485454559326 122 71 130 252 4
2.39047932624816895 5.81403398513793945 0.402066618204116821 122 71 130 252 4
2.29155921936035156 5.79250812530517578 0.406939297914505005 122 71 130 252 4
2.3412778377532959 5.80049705505371094 0.414212822914123535 122 71 130 252 4
2.39305496215820312 5.81925010681152344 0.446712762117385864 122 71 130 252 4
2.32047200202941895 5.80313301086425781 0.44828227162361145 122 71 130 252 4
2.25164031982421875 5.9001164436340332 0.387287378311157227 122 71 130 252 4
2.2510530948638916 5.91801786422729492 0.437550574541091919 122 71 130 252 4
2.25855612754821777 5.82456588745117188 0.214066773653030396 122 71 130 252 4
2.30153822898864746 5.81762409210205078 0.482927381992340088 122 71 130 252 4
2.41197419166564941 5.81751251220703125 0.327956974506378174 122 71 130 252 4
2.46894145011901855 5.83650112152099609 0.328463286161422729 122 71 130 252 4
2.45741438865661621 5.83344745635986328 0.347646713256835938 122 71 130 252 4
2.46177935600280762 5.83246612548828125 0.383022665977478027 122 71 130 252 4
2.20472812652587891 5.86441946029663086 0.384279757738113403 122 71 130 252 4
2.19742298126220703 5.83574914932250977 0.360526919364929199 122 71 130 252 4
2.23736000061035156 5.84553384780883789 0.311724722385406494 122 71 130 252 4
2.19607281684875488 5.85155534744262695 0.385711729526519775 122 71 130 252 4
2.24080181121826172 5.83082056045532227 0.314158886671066284 122 71 130 252 4
2.4181210994720459 5.81202602386474609 0.291300296783447266 122 71 130 252 4
2.5007479190826416 5.85565567016601562 0.457343190908432007 122 71 130 252 4
2.30736565589904785 5.81307268142700195 0.219809576869010925 122 71 130 252 4
2.26434016227722168 5.91898822784423828 0.401588410139083862 122 71 130 252 4
2.25615644454956055 5.94560861587524414 0.450282394886016846 122 71 130 252 4
2.28192329406738281 5.79310941696166992 0.375726252794265747 122 71 130 252 4
2.32636165618896484 5.78951930999755859 0.369332045316696167 122 71 130 252 4
2.25369572639465332 5.80318117141723633 0.357708126306533813 122 71 130 252 4
2.3038184642791748 5.80088615417480469 0.312465071678161621 122 71 130 252 4
2.26445341110229492 5.81434726715087891 0.311135381460189819 122 71 130 252 4
2.23074197769165039 5.82263278961181641 0.338820368051528931 122 71 130 252 4
2.59241151809692383 5.89599132537841797 0.483878910541534424 122 71 130 252 4
2.50409388542175293 5.85157346725463867 0.415251761674880981 122 71 130 252 4
2.42080545425415039 5.84542131423950195 0.483113527297973633 122 71 130 252 4
2.46379375457763672 5.84786844253540039 0.460495054721832275 122 71 130 252 4
2.49730587005615234 5.84782695770263672 0.340783417224884033 122 71 130 252 4
2.52824854850769043 5.8527226448059082 0.371911466121673584 122 71 130 252 4
2.5294806957244873 5.85239267349243164 0.390256613492965698 122 71 130 252 4
2.50899696350097656 5.87076234817504883 0.483417153358459473 122 71 130 252 4
2.22541141510009766 5.81313276290893555 0.36225360631942749 122 71 130 252 4
2.20118308067321777 5.82798337936401367 0.393509238958358765 122 71 130 252 4
2.41970300674438477 5.82860755920410156 0.423943102359771729 122 71 130 252 4
2.72112250328063965 5.91855335235595703 0.397056996822357178 122 71 130 252 4
2.7637331485748291 5.93345928192138672 0.387810289859771729 122 71 130 252 4
2.75936198234558105 5.94861412048339844 0.466781765222549438 122 71 130 252 4
2.79513382911682129 5.95449733734130859 0.42852368950843811 122 71 130 252 4
3.02177667617797852 6.03077363967895508 0.436519533395767212 122 71 130 252 4
3.09981608390808105 6.04815053939819336 0.422340840101242065 122 71 130 252 4
3.08819937705993652 6.07880496978759766 0.463092327117919922 122 71 130 252 4
3.06281900405883789 6.02994012832641602 0.42108762264251709 122 71 130 252 4
3.09795761108398438 6.06296014785766602 0.437790542840957642 122 71 130 252 4
3.18294763565063477 6.15566062927246094 0.33388519287109375 122 71 130 252 4
2.56472039222717285 5.87329816818237305 0.324215829372406006 122 71 130 252 4
2.57113742828369141 5.86588048934936523 0.39383852481842041 122 71 130 252 4
2.59204721450805664 5.88211250305175781 0.343774944543838501 122 71 130 252 4
2.64227652549743652 5.89089822769165039 0.377620965242385864 122 71 130 252 4
2.57544970512390137 5.88668107986450195 0.47313767671585083 122 71 130 252 4
3.21539545059204102 6.16978216171264648 0.366440474987030029 122 71 130 252 4
3.21380734443664551 6.16763782501220703 0.334899097681045532 122 71 130 252 4
3.16297030448913574 6.15153169631958008 0.313383102416992188 122 71 130 252 4
3.16368961334228516 6.15479087829589844 0.342718809843063354 122 71 130 252 4
3.17543363571166992 6.14339637756347656 0.368405699729919434 122 71 130 252 4
3.2087397575378418 6.11309814453125 0.374276876449584961 122 71 130 252 4
3.1696012020111084 6.08972501754760742 0.380413621664047241 122 71 130 252 4
3.20815157890319824 6.09776735305786133 0.382219135761260986 122 71 130 252 4
3.15570712089538574 6.11294412612915039 0.371278703212738037 122 71 130 252 4
3.14557766914367676 6.13827180862426758 0.366912096738815308 122 71 130 252 4
3.12293076515197754 6.08952236175537109 0.403870195150375366 122 71 130 252 4
2.81964349746704102 5.95048093795776367 0.387221068143844604 122 71 130 252 4
2.84315991401672363 5.97487068176269531 0.444853335618972778 122 71 130 252 4
2.87387371063232422 5.99129152297973633 0.478600025177001953 122 71 130 252 4
2.6364285945892334 5.90716409683227539 0.46514517068862915 122 71 130 252 4
2.67484831809997559 5.91010332107543945 0.420578807592391968 122 71 130 252 4
3.03461170196533203 6.01314115524291992 0.387233227491378784 122 71 130 252 4
3.07600760459899902 6.02503204345703125 0.379112273454666138 122 71 130 252 4
3.05778765678405762 6.00971174240112305 0.3615589439868927 122 71 130 252 4
2.68181490898132324 5.9209442138671875 0.462987303733825684 122 71 130 252 4
3.13473844528198242 6.05376195907592773 0.387170344591140747 122 71 130 252 4
2.88606643676757812 5.98815202713012695 0.43214455246925354 122 71 130 252 4
2.93370294570922852 6.00671768188476562 0.446587502956390381 122 71 130 252 4
2.6479499340057373 5.9205622673034668 0.492210894823074341 122 71 130 252 4
3.15406203269958496 6.07588481903076172 0.387995064258575439 122 71 130 252 4
2.73917388916015625 5.928680419921875 0.346552670001983643 122 71 130 252 4
3.06395816802978516 6.08312177658081055 0.501965880393981934 122 71 130 252 4
2.9780890941619873 6.04892539978027344 0.506088316440582275 122 71 130 252 4
3.03354239463806152 6.06377363204956055 0.501839697360992432 122 71 130 252 4
2.92278480529785156 6.01074838638305664 0.480364292860031128 122 71 130 252 4
2.93104839324951172 6.02087688446044922 0.495022445917129517 122 71 130 252 4
2.79235458374023438 5.96798944473266602 0.492592811584472656 122 71 130 252 4
2.97230339050292969 6.02708053588867188 0.462467968463897705 122 71 130 252 4
2.98524785041809082 6.03822660446166992 0.488972127437591553 122 71 130 252 4
3.03898048400878906 6.05352067947387695 0.463525682687759399 122 71 130 252 4
2.98825478553771973 6.01232814788818359 0.426629364490509033 122 71 130 252 4
2.94061017036437988 5.99473237991333008 0.413515537977218628 122 71 130 252 4
3.01965928077697754 6.01609039306640625 0.421405673027038574 122 71 130 252 4
2.73429465293884277 5.94662380218505859 0.49096342921257019 122 71 130 252 4
2.76815891265869141 5.96370601654052734 0.492915600538253784 122 71 130 252 4
3.12077164649963379 6.07698917388916016 0.414180666208267212 122 71 130 252 4
2.69131898880004883 5.90628719329833984 0.381956011056900024 122 71 130 252 4
2.66065526008605957 5.9037013053894043 0.340170979499816895 122 71 130 252 4
2.65509200096130371 5.89461612701416016 0.397713571786880493 122 71 130 252 4
2.89503979682922363 5.97605276107788086 0.391063004732131958 122 71 130 252 4
2.83875274658203125 5.95433902740478516 0.341634422540664673 122 71 130 252 4
2.83869290351867676 5.98853445053100586 0.49472886323928833 122 71 130 252 4
2.56827282905578613 5.87928915023803711 0.441874533891677856 122 71 130 252 4
2.60010242462158203 5.87816476821899414 0.395237743854522705 122 71 130 252 4
3.01300668716430664 6.49067831039428711 0.27988395094871521 122 71 130 252 4
3.00901365280151367 6.52376842498779297 0.291088640689849854 122 71 130 252 4
2.98857021331787109 6.54776525497436523 0.240697130560874939 122 71 130 252 4
3.03048968315124512 6.42983436584472656 0.276979684829711914 122 71 130 252 4
3.03895068168640137 6.39646196365356445 0.290483027696609497 122 71 130 252 4
3.01360964775085449 6.45824718475341797 0.307145029306411743 122 71 130 252 4
3.03041172027587891 6.40400218963623047 0.316036701202392578 122 71 130 252 4
3.05655622482299805 6.37061309814453125 0.253542244434356689 122 71 130 252 4
3.06327986717224121 6.34262275695800781 0.238959789276123047 122 71 130 252 4
3.01297330856323242 6.47390222549438477 0.240207329392433167 122 71 130 252 4
3.11230587959289551 6.17647075653076172 0.299494892358779907 122 71 130 252 4
3.10022735595703125 6.21948003768920898 0.300618112087249756 122 71 130 252 4
3.09410786628723145 6.2526087760925293 0.278540223836898804 122 71 130 252 4
3.11149072647094727 6.21420955657958984 0.277529299259185791 122 71 130 252 4
3.02919888496398926 6.46613740921020508 0.206477060914039612 122 71 130 252 4
3.0159916877746582 6.49312973022460938 0.21326407790184021 122 71 130 252 4
3.01404452323913574 6.4940028190612793 0.194926634430885315 122 71 130 252 4
2.99545955657958984 6.51832008361816406 0.226516857743263245 122 71 130 252 4
2.97849869728088379 6.53695058822631836 0.185706093907356262 122 71 130 252 4
3.08373832702636719 6.22123289108276367 0.325662076473236084 122 71 130 252 4
3.04714560508728027 6.39739608764648438 0.227716952562332153 122 71 130 252 4
3.0355370044708252 6.43510580062866211 0.231601729989051819 122 71 130 252 4
3.0552976131439209 6.31229114532470703 0.32445758581161499 122 71 130 252 4
3.06238651275634766 6.2788386344909668 0.328781932592391968 122 71 130 252 4
3.08323168754577637 6.30165863037109375 0.245456397533416748 122 71 130 252 4
3.08744549751281738 6.28494119644165039 0.266758233308792114 122 71 130 252 4
3.0745241641998291 6.29845428466796875 0.285859793424606323 122 71 130 252 4
3.08258748054504395 6.24886894226074219 0.314175397157669067 122 71 130 252 4
3.06460428237915039 6.33151626586914062 0.290781885385513306 122 71 130 252 4
3.08062171936035156 6.32150793075561523 0.26522362232208252 122 71 130 252 4
2.99734401702880859 6.48729944229125977 0.338083267211914062 122 71 130 252 4
2.99004268646240234 6.51869726181030273 0.342537492513656616 122 71 130 252 4
2.97586178779602051 6.54474544525146484 0.331463515758514404 122 71 130 252 4
2.97354555130004883 6.54913520812988281 0.210583999752998352 122 71 130 252 4
2.96765565872192383 6.54927206039428711 0.342171132564544678 122 71 130 252 4
2.97799229621887207 6.56492710113525391 0.263210296630859375 122 71 130 252 4
2.98746919631958008 6.55324506759643555 0.280376642942428589 122 71 130 252 4
2.49614572525024414 5.8294367790222168 0.268377333879470825 122 71 130 252 4
2.51299023628234863 5.85951519012451172 0.0693822652101516724 122 71 130 252 4
2.53658890724182129 5.83310413360595703 0.137953072786331177 122 71 130 252 4
2.50851941108703613 5.82460403442382812 0.154302045702934265 122 71 130 252 4
2.40057802200317383 5.80352783203125 0.225864991545677185 122 71 130 252 4
2.3972470760345459 5.77747249603271484 0.197159111499786377 122 71 130 252 4
2.39880084991455078 5.79565572738647461 0.159782394766807556 122 71 130 252 4
2.41092085838317871 5.79856729507446289 0.19674469530582428 122 71 130 252 4
2.44687461853027344 5.80841684341430664 0.225645840167999268 122 71 130 252 4
2.53688836097717285 5.83176660537719727 0.213350415229797363 122 71 130 252 4
2.48450922966003418 5.81921529769897461 0.235864371061325073 122 71 130 252 4
2.48219847679138184 5.82097625732421875 0.135156780481338501 122 71 130 252 4
2.4211432933807373 5.80932474136352539 0.251402288675308228 122 71 130 252 4
2.44066977500915527 5.82305002212524414 0.310141563415527344 122 71 130 252 4
2.38141131401062012 5.80415964126586914 0.104630656540393829 122 71 130 252 4
2.37632369995117188 5.78087663650512695 0.091173909604549408 122 71 130 252 4
2.3762359619140625 5.82334327697753906 0.0676011592149734497 122 71 130 252 4
2.38515543937683105 5.78138875961303711 0.2082853764295578 122 71 130 252 4
2.37569594383239746 5.78463268280029297 0.156922772526741028 122 71 130 252 4
2.36526966094970703 5.7979426383972168 0.241048291325569153 122 71 130 252 4
2.53377628326416016 5.84642601013183594 0.287303507328033447 122 71 130 252 4
2.44536447525024414 5.8407135009765625 0.068128436803817749 122 71 130 252 4
2.40398430824279785 5.82714223861694336 0.0686199888586997986 122 71 130 252 4
2.39231204986572266 5.80074691772460938 0.122128590941429138 122 71 130 252 4
2.44420480728149414 5.80550050735473633 0.151819869875907898 122 71 130 252 4
3.04825425148010254 6.00848722457885742 0.27430802583694458 122 71 130 252 4
3.10987257957458496 6.02861881256103516 0.282755553722381592 122 71 130 252 4
2.8949897289276123 5.94781970977783203 0.312807679176330566 122 71 130 252 4
2.93821358680725098 5.95735597610473633 0.235986113548278809 122 71 130 252 4
2.90527439117431641 5.96152305603027344 0.289690077304840088 122 71 130 252 4
2.92337775230407715 5.96222686767578125 0.263407379388809204 122 71 130 252 4
2.50142884254455566 5.85001707077026367 0.31188434362411499 122 71 130 252 4
2.79670095443725586 5.94143104553222656 0.0653818771243095398 122 71 130 252 4
3.03321743011474609 5.99071025848388672 0.23958238959312439 122 71 130 252 4
2.9782261848449707 5.97191762924194336 0.228689581155776978 122 71 130 252 4
2.97142910957336426 5.98494625091552734 0.28511345386505127 122 71 130 252 4
3.02084112167358398 5.99927425384521484 0.293076843023300171 122 71 130 252 4
3.03299403190612793 5.99562644958496094 0.316990196704864502 122 71 130 252 4
2.95352673530578613 5.96891307830810547 0.311791867017745972 122 71 130 252 4
3.16716361045837402 6.05621480941772461 0.301016151905059814 122 71 130 252 4
3.16675233840942383 6.05274724960327148 0.262877583503723145 122 71 130 252 4
3.15652656555175781 6.04410886764526367 0.238904029130935669 122 71 130 252 4
3.14887380599975586 6.04532718658447266 0.311966925859451294 122 71 130 252 4
3.17499542236328125 6.06179237365722656 0.289357036352157593 122 71 130 252 4
3.0933384895324707 6.01526641845703125 0.24327521026134491 122 71 130 252 4
3.12737393379211426 6.02825546264648438 0.126118302345275879 122 71 130 252 4
3.11660265922546387 6.02916622161865234 0.10661490261554718 122 71 130 252 4
3.18032693862915039 6.0564265251159668 0.105073891580104828 122 71 130 252 4
3.13612461090087891 6.04778146743774414 0.0677821636199951172 122 71 130 252 4
3.19173431396484375 6.06905984878540039 0.0658532902598381042 122 71 130 252 4
3.18853616714477539 6.07268142700195312 0.376561552286148071 122 71 130 252 4
2.68691706657409668 5.8992314338684082 0.0949281901121139526 122 71 130 252 4
2.65827775001525879 5.87942743301391602 0.127455845475196838 122 71 130 252 4
2.70057082176208496 5.89445590972900391 0.118163898587226868 122 71 130 252 4
2.78073549270629883 5.91028976440429688 0.1875 122 71 130 252 4
2.65438675880432129 5.88554191589355469 0.273525148630142212 122 71 130 252 4
2.58775734901428223 5.86905288696289062 0.292158186435699463 122 71 130 252 4
2.55835270881652832 5.84469747543334961 0.2407664954662323 122 71 130 252 4
2.96938967704772949 5.97544431686401367 0.336129665374755859 122 71 130 252 4
2.99900245666503906 5.98432588577270508 0.338926404714584351 122 71 130 252 4
2.79715514183044434 5.91684579849243164 0.237423539161682129 122 71 130 252 4
2.73535585403442383 5.89999771118164062 0.246599406003952026 122 71 130 252 4
2.98199915885925293 5.96892738342285156 0.168199241161346436 122 71 130 252 4
3.03291797637939453 5.98975706100463867 0.145011529326438904 122 71 130 252 4
2.97098064422607422 5.97739219665527344 0.112199157476425171 122 71 130 252 4
3.02900958061218262 5.99552392959594727 0.116572782397270203 122 71 130 252 4
2.97878146171569824 5.9957427978515625 0.0649005845189094543 122 71 130 252 4
2.82773113250732422 5.93052577972412109 0.3129425048828125 122 71 130 252 4
2.84585022926330566 5.94167804718017578 0.291675359010696411 122 71 130 252 4
2.8406672477722168 5.94035768508911133 0.271527498960494995 122 71 130 252 4
2.89130735397338867 5.94317483901977539 0.241901576519012451 122 71 130 252 4
2.89063143730163574 5.97113752365112305 0.0647580251097679138 122 71 130 252 4
2.73151922225952148 5.89597034454345703 0.146830126643180847 122 71 130 252 4
2.7244715690612793 5.91989469528198242 0.0719465538859367371 122 71 130 252 4
2.76812219619750977 5.91330051422119141 0.124659843742847443 122 71 130 252 4
2.7715153694152832 5.93502473831176758 0.0696772262454032898 122 71 130 252 4
2.79417610168457031 5.93820667266845703 0.0547096207737922668 122 71 130 252 4
2.7352144718170166 5.91498470306396484 0.0512247346341609955 122 71 130 252 4
2.67100214958190918 5.8753352165222168 0.155283734202384949 122 71 130 252 4
2.70150613784790039 5.88642311096191406 0.212812498211860657 122 71 130 252 4
2.7565305233001709 5.91661882400512695 0.271501392126083374 122 71 130 252 4
2.78701090812683105 5.92713594436645508 0.284996390342712402 122 71 130 252 4
3.0794675350189209 6.01252937316894531 0.333516597747802734 122 71 130 252 4
3.01267600059509277 5.99717330932617188 0.361494004726409912 122 71 130 252 4
3.12191581726074219 6.02990818023681641 0.323502719402313232 122 71 130 252 4
3.1653287410736084 6.05211257934570312 0.316541314125061035 122 71 130 252 4
3.17493152618408203 6.06038045883178711 0.351698458194732666 122 71 130 252 4
3.14282989501953125 6.0439753532409668 0.366617709398269653 122 71 130 252 4
3.11489295959472656 6.03151082992553711 0.358354687690734863 122 71 130 252 4
3.16602373123168945 6.05723142623901367 0.379238307476043701 122 71 130 252 4
3.16496706008911133 6.04515457153320312 0.199925333261489868 122 71 130 252 4
3.13422274589538574 6.03042936325073242 0.230420470237731934 122 71 130 252 4
3.22168111801147461 6.08452892303466797 0.0740757957100868225 122 71 130 252 4
2.7922823429107666 5.94182825088500977 0.339042365550994873 122 71 130 252 4
2.71957039833068848 5.92135906219482422 0.323337465524673462 122 71 130 252 4
2.86312437057495117 5.95413303375244141 0.093829132616519928 122 71 130 252 4
2.9359891414642334 5.95978450775146484 0.136886864900588989 122 71 130 252 4
2.9425504207611084 5.98607683181762695 0.0674480199813842773 122 71 130 252 4
2.91747212409973145 5.97694158554077148 0.0751267075538635254 122 71 130 252 4
2.82682037353515625 5.92386531829833984 0.159134387969970703 122 71 130 252 4
2.84202718734741211 5.92821502685546875 0.220532238483428955 122 71 130 252 4
3.04617619514465332 5.99158763885498047 0.186195164918899536 122 71 130 252 4
3.11819267272949219 6.02081203460693359 0.144480302929878235 122 71 130 252 4
3.02218008041381836 6.00331783294677734 0.0795626118779182434 122 71 130 252 4
3.06824541091918945 6.00416851043701172 0.13106219470500946 122 71 130 252 4
3.08152914047241211 6.02982187271118164 0.0662849172949790955 122 71 130 252 4
3.08650517463684082 6.01452445983886719 0.115301825106143951 122 71 130 252 4
2.64081335067749023 5.87027120590209961 0.243579387664794922 122 71 130 252 4
2.71427655220031738 5.90815544128417969 0.295582205057144165 122 71 130 252 4
2.64375877380371094 5.90017604827880859 0.308275848627090454 122 71 130 252 4
2.65246129035949707 5.8880610466003418 0.288307338953018188 122 71 130 252 4
3.13427209854125977 6.0272979736328125 0.16244293749332428 122 71 130 252 4
3.07713961601257324 6.00304985046386719 0.208022817969322205 122 71 130 252 4
3.02895045280456543 6.00338840484619141 0.05994386225938797 122 71 130 252 4
2.54726767539978027 5.85485935211181641 0.0967141315340995789 122 71 130 252 4
2.91664600372314453 5.94908905029296875 0.161572128534317017 122 71 130 252 4
2.93919825553894043 5.95473957061767578 0.202378138899803162 122 71 130 252 4
2.84399676322937012 5.9535670280456543 0.0616564638912677765 122 71 130 252 4
2.8446044921875 5.93400192260742188 0.137485519051551819 122 71 130 252 4
2.72186708450317383 5.90498638153076172 0.274838536977767944 122 71 130 252 4
2.7719426155090332 5.92183113098144531 0.308822602033615112 122 71 130 252 4
2.8725273609161377 5.94554471969604492 0.329736530780792236 122 71 130 252 4
2.5597527027130127 5.86931657791137695 0.0709852203726768494 122 71 130 252 4
2.62730073928833008 5.85994577407836914 0.157554581761360168 122 71 130 252 4
2.64037370681762695 5.86817550659179688 0.199999988079071045 122 71 130 252 4
2.58974266052246094 5.84906387329101562 0.174485206604003906 122 71 130 252 4
2.55850696563720703 5.83450174331665039 0.179252311587333679 122 71 130 252 4
2.94227719306945801 5.99414920806884766 0.380597859621047974 122 71 130 252 4
2.92365431785583496 5.96338462829589844 0.345217019319534302 122 71 130 252 4
2.95538449287414551 5.98337364196777344 0.365701645612716675 122 71 130 252 4
2.88075923919677734 5.96859216690063477 0.352826148271560669 122 71 130 252 4
2.99756145477294922 5.98492860794067383 0.26084524393081665 122 71 130 252 4
