ply
format ascii 1.0
element vertex 361
property float x
property float y
property float z
property uchar red
property uchar green
property uchar blue
property uchar alpha
property uint label
end_header
8.11161899566650391 2.53825855255126953 0.395834624767303467 133 169 0 239 17
8.05328083038330078 2.37457609176635742 0.384071975946426392 133 169 0 239 17
8.02185726165771484 2.33329653739929199 0.383205682039260864 133 169 0 239 17
8.04160499572753906 2.3684687614440918 0.399092972278594971 133 169 0 239 17
8.01332187652587891 2.32518553733825684 0.376907527446746826 133 169 0 239 17
8.02350807189941406 2.35708141326904297 0.401547014713287354 133 169 0 239 17
8.00796985626220703 2.34462833404541016 0.392074018716812134 133 169 0 239 17
8.06518077850341797 2.33302187919616699 0.387790858745574951 133 169 0 239 17
7.64696931838989258 2.42740488052368164 0.402106523513793945 133 169 0 239 17
7.62954854965209961 2.4651176929473877 0.420846521854400635 133 169 0 239 17
7.65387821197509766 2.48268771171569824 0.432730317115783691 133 169 0 239 17
7.65195465087890625 2.55023479461669922 0.435550421476364136 133 169 0 239 17
7.60661935806274414 2.50781965255737305 0.424510985612869263 133 169 0 239 17
7.614044189453125 2.5539097785949707 0.421251207590103149 133 169 0 239 17
8.06830501556396484 2.40243721008300781 0.394307494163513184 133 169 0 239 17
7.82547092437744141 2.37879371643066406 0.413994193077087402 133 169 0 239 17
8.01116657257080078 2.28969979286193848 0.367418080568313599 133 169 0 239 17
8.05482578277587891 2.30385160446166992 0.369494825601577759 133 169 0 239 17
8.12947750091552734 2.36859393119812012 0.372269332408905029 133 169 0 239 17
8.08497714996337891 2.38065147399902344 0.381664872169494629 133 169 0 239 17
8.06096744537353516 2.31304049491882324 0.388478845357894897 133 169 0 239 17
8.11345100402832031 2.39450955390930176 0.384952127933502197 133 169 0 239 17
8.09378147125244141 2.41599678993225098 0.394715487957000732 133 169 0 239 17
8.06357860565185547 2.54057073593139648 0.423693031072616577 133 169 0 239 17
8.04913616180419922 2.49724984169006348 0.40483441948890686 133 169 0 239 17
8.09860134124755859 2.47955060005187988 0.396003484725952148 133 169 0 239 17
8.05416488647460938 2.51124000549316406 0.422180831432342529 133 169 0 239 17
8.04789447784423828 2.41200065612792969 0.413645654916763306 133 169 0 239 17
8.05986595153808594 2.42628645896911621 0.404384344816207886 133 169 0 239 17
8.03567790985107422 2.50314068794250488 0.435614109039306641 133 169 0 239 17
8.01514244079589844 2.39249300956726074 0.395501196384429932 133 169 0 239 17
8.04296398162841797 2.40562105178833008 0.394413888454437256 133 169 0 239 17
8.00062179565429688 2.43031001091003418 0.39544224739074707 133 169 0 239 17
8.02958965301513672 2.42302775382995605 0.404187500476837158 133 169 0 239 17
8.05096530914306641 2.46830248832702637 0.418355166912078857 133 169 0 239 17
8.00324344635009766 2.38460493087768555 0.414711683988571167 133 169 0 239 17
7.86549043655395508 2.34337949752807617 0.393398076295852661 133 169 0 239 17
7.91459274291992188 2.35443878173828125 0.399521082639694214 133 169 0 239 17
7.83365297317504883 2.34245538711547852 0.3942718505859375 133 169 0 239 17
7.76819419860839844 2.36211824417114258 0.405327528715133667 133 169 0 239 17
7.95075273513793945 2.27105283737182617 0.364419937133789062 133 169 0 239 17
7.92024993896484375 2.29653453826904297 0.371013164520263672 133 169 0 239 17
7.95397520065307617 2.23847603797912598 0.345139950513839722 133 169 0 239 17
7.93455314636230469 2.25829458236694336 0.353943437337875366 133 169 0 239 17
7.77456188201904297 2.54036712646484375 0.443757712841033936 133 169 0 239 17
7.70798301696777344 2.50596284866333008 0.438537031412124634 133 169 0 239 17
7.75187826156616211 2.51543855667114258 0.442282944917678833 133 169 0 239 17
7.95056629180908203 2.30712461471557617 0.374608874320983887 133 169 0 239 17
7.92264366149902344 2.34364223480224609 0.383826911449432373 133 169 0 239 17
7.97137928009033203 2.31646203994750977 0.381721198558807373 133 169 0 239 17
7.94320201873779297 2.33478045463562012 0.388268738985061646 133 169 0 239 17
7.94160699844360352 2.36368465423583984 0.397161483764648438 133 169 0 239 17
7.97628641128540039 2.36012363433837891 0.388668924570083618 133 169 0 239 17
8.09814834594726562 2.3181760311126709 0.37975156307220459 133 169 0 239 17
8.02836132049560547 2.40863347053527832 0.383654773235321045 133 169 0 239 17
7.96343564987182617 2.52328062057495117 0.444756001234054565 133 169 0 239 17
7.93674516677856445 2.55823850631713867 0.452240079641342163 133 169 0 239 17
7.72959327697753906 2.46577811241149902 0.435434818267822266 133 169 0 239 17
7.83642864227294922 2.43201994895935059 0.429741054773330688 133 169 0 239 17
7.82393217086791992 2.47762393951416016 0.438472867012023926 133 169 0 239 17
8.05814456939697266 2.3812713623046875 0.399395287036895752 133 169 0 239 17
7.97452449798583984 2.38566827774047852 0.417272597551345825 133 169 0 239 17
7.98361730575561523 2.43397712707519531 0.42600780725479126 133 169 0 239 17
8.04170513153076172 2.45132899284362793 0.426345586776733398 133 169 0 239 17
7.68627595901489258 2.4021151065826416 0.408915430307388306 133 169 0 239 17
7.72410058975219727 2.3828284740447998 0.409605622291564941 133 169 0 239 17
7.67157697677612305 2.44608330726623535 0.426829993724822998 133 169 0 239 17
7.75930929183959961 2.43121814727783203 0.4284076988697052 133 169 0 239 17
7.72849702835083008 2.41620779037475586 0.423208624124526978 133 169 0 239 17
8.09349536895751953 2.49481296539306641 0.406367897987365723 133 169 0 239 17
8.12474632263183594 2.50095868110656738 0.397596925497055054 133 169 0 239 17
7.88076210021972656 2.36063361167907715 0.405797958374023438 133 169 0 239 17
7.84631729125976562 2.34870409965515137 0.405409842729568481 133 169 0 239 17
7.88546657562255859 2.37586712837219238 0.415421277284622192 133 169 0 239 17
8.09871482849121094 2.36562848091125488 0.396559089422225952 133 169 0 239 17
8.14174747467041016 2.31753230094909668 0.392643541097640991 133 169 0 239 17
8.13154506683349609 2.34381103515625 0.392757683992385864 133 169 0 239 17
7.91349363327026367 2.51719927787780762 0.444082796573638916 133 169 0 239 17
7.86051607131958008 2.51231741905212402 0.443753033876419067 133 169 0 239 17
7.93428707122802734 2.44211816787719727 0.430407166481018066 133 169 0 239 17
7.84300518035888672 2.49278688430786133 0.444202154874801636 133 169 0 239 17
7.89867734909057617 2.41480731964111328 0.425048887729644775 133 169 0 239 17
7.997406005859375 2.62655377388000488 0.446006208658218384 133 169 0 239 17
7.90028858184814453 2.585662841796875 0.456328749656677246 133 169 0 239 17
7.967315673828125 2.62198376655578613 0.456669479608535767 133 169 0 239 17
7.97579050064086914 2.5917670726776123 0.455393880605697632 133 169 0 239 17
8.00481891632080078 2.59607291221618652 0.447775691747665405 133 169 0 239 17
7.95069599151611328 2.71365833282470703 0.435680657625198364 133 169 0 239 17
7.96579408645629883 2.69193577766418457 0.442746609449386597 133 169 0 239 17
7.97039985656738281 2.73624324798583984 0.394434422254562378 133 169 0 239 17
7.91250753402709961 2.73105740547180176 0.432988792657852173 133 169 0 239 17
8.00493907928466797 2.73769354820251465 0.389732003211975098 133 169 0 239 17
7.69957494735717773 2.57543206214904785 0.441072702407836914 133 169 0 239 17
7.72590112686157227 2.63898038864135742 0.44366300106048584 133 169 0 239 17
7.89922523498535156 2.71464252471923828 0.449538558721542358 133 169 0 239 17
7.85004949569702148 2.70445132255554199 0.452870547771453857 133 169 0 239 17
7.88599729537963867 2.66855859756469727 0.457618832588195801 133 169 0 239 17
7.94941997528076172 2.64019179344177246 0.456171721220016479 133 169 0 239 17
7.87035560607910156 2.74972033500671387 0.403998285531997681 133 169 0 239 17
7.87012195587158203 2.73826241493225098 0.433260887861251831 133 169 0 239 17
7.83349704742431641 2.71927213668823242 0.447269171476364136 133 169 0 239 17
7.84284496307373047 2.5663599967956543 0.44966086745262146 133 169 0 239 17
8.03192615509033203 2.55498147010803223 0.440656721591949463 133 169 0 239 17
7.91144800186157227 2.76763153076171875 0.38479149341583252 133 169 0 239 17
7.94471073150634766 2.77579927444458008 0.38022276759147644 133 169 0 239 17
7.63884782791137695 2.58024120330810547 0.425193130970001221 133 169 0 239 17
7.66478157043457031 2.60526943206787109 0.43253481388092041 133 169 0 239 17
7.9050755500793457 2.7495119571685791 0.399872183799743652 133 169 0 239 17
7.81989288330078125 2.6049497127532959 0.45196378231048584 133 169 0 239 17
7.87525796890258789 2.61997079849243164 0.459106028079986572 133 169 0 239 17
7.99329662322998047 2.78544116020202637 0.38813096284866333 133 169 0 239 17
7.93097352981567383 2.7999427318572998 0.368658930063247681 133 169 0 239 17
7.98520803451538086 2.81678628921508789 0.385237812995910645 133 169 0 239 17
8.00623703002929688 2.70904779434204102 0.407477200031280518 133 169 0 239 17
8.05569267272949219 2.65392494201660156 0.425668001174926758 133 169 0 239 17
8.02765178680419922 2.66323423385620117 0.426298201084136963 133 169 0 239 17
8.03722095489501953 2.67732071876525879 0.419519007205963135 133 169 0 239 17
8.03555202484130859 2.7185361385345459 0.39910358190536499 133 169 0 239 17
8.05328178405761719 2.60828566551208496 0.424448311328887939 133 169 0 239 17
8.05281734466552734 2.57690882682800293 0.423029810190200806 133 169 0 239 17
8.02716445922851562 2.61983752250671387 0.433491975069046021 133 169 0 239 17
8.00275135040283203 2.54883813858032227 0.44785076379776001 133 169 0 239 17
8.07785415649414062 2.58747768402099609 0.419052064418792725 133 169 0 239 17
8.07580757141113281 2.63511276245117188 0.431889861822128296 133 169 0 239 17
8.09943294525146484 2.56217432022094727 0.414928793907165527 133 169 0 239 17
8.09425926208496094 2.54379630088806152 0.402777493000030518 133 169 0 239 17
7.76124954223632812 2.5774998664855957 0.446225017309188843 133 169 0 239 17
7.72239351272583008 2.59680771827697754 0.44381415843963623 133 169 0 239 17
7.85033988952636719 2.64924788475036621 0.457164078950881958 133 169 0 239 17
7.79329967498779297 2.66522741317749023 0.449868232011795044 133 169 0 239 17
7.77310466766357422 2.6800224781036377 0.445353269577026367 133 169 0 239 17
7.68784761428833008 2.63434720039367676 0.432179242372512817 133 169 0 239 17
8.24840354919433594 2.43873715400695801 0.422360360622406006 133 169 0 239 17
8.28431987762451172 2.39295697212219238 0.371143609285354614 133 169 0 239 17
8.30195331573486328 2.3917534351348877 0.470735132694244385 133 169 0 239 17
8.30086040496826172 2.37780237197875977 0.396207630634307861 133 169 0 239 17
8.30874919891357422 2.37555313110351562 0.479459166526794434 133 169 0 239 17
8.23900318145751953 2.44023656845092773 0.353917568922042847 133 169 0 239 17
8.22093868255615234 2.45191192626953125 0.395784735679626465 133 169 0 239 17
8.22856616973876953 2.43590378761291504 0.361450105905532837 133 169 0 239 17
8.17353534698486328 2.49908757209777832 0.416533172130584717 133 169 0 239 17
8.20059871673583984 2.47129726409912109 0.408522516489028931 133 169 0 239 17
8.18016529083251953 2.47991037368774414 0.397786617279052734 133 169 0 239 17
8.31682777404785156 2.35519218444824219 0.325086534023284912 133 169 0 239 17
8.29332542419433594 2.38759279251098633 0.336183875799179077 133 169 0 239 17
8.31228446960449219 2.36127352714538574 0.344784826040267944 133 169 0 239 17
8.17704200744628906 2.50902366638183594 0.461998581886291504 133 169 0 239 17
8.18196392059326172 2.51296615600585938 0.538639724254608154 133 169 0 239 17
8.141998291015625 2.55262064933776855 0.476888686418533325 133 169 0 239 17
8.24408149719238281 2.43184185028076172 0.381423443555831909 133 169 0 239 17
8.26675224304199219 2.41401362419128418 0.344698280096054077 133 169 0 239 17
8.32478618621826172 2.37769055366516113 0.524219512939453125 133 169 0 239 17
8.28190517425537109 2.41455698013305664 0.478933095932006836 133 169 0 239 17
8.2550811767578125 2.44240188598632812 0.498239994049072266 133 169 0 239 17
8.14002323150634766 2.51444697380065918 0.402361869812011719 133 169 0 239 17
8.15005397796630859 2.47789525985717773 0.386102110147476196 133 169 0 239 17
8.21821022033691406 2.46586799621582031 0.45834919810295105 133 169 0 239 17
8.22396469116210938 2.47848176956176758 0.569342255592346191 133 169 0 239 17
8.22593784332275391 2.4860084056854248 0.627849996089935303 133 169 0 239 17
8.2443695068359375 2.47420573234558105 0.633463263511657715 133 169 0 239 17
8.15899562835693359 2.54751205444335938 0.574801445007324219 133 169 0 239 17
8.14717864990234375 2.57037878036499023 0.620149731636047363 133 169 0 239 17
8.32955646514892578 2.51794600486755371 0.78926461935043335 133 169 0 239 17
8.33127498626708984 2.46905374526977539 0.759574413299560547 133 169 0 239 17
8.32385730743408203 2.51036262512207031 0.773234546184539795 133 169 0 239 17
8.34742259979248047 2.3913273811340332 0.64046633243560791 133 169 0 239 17
8.31975936889648438 2.40544676780700684 0.606511175632476807 133 169 0 239 17
8.27515506744384766 2.45875382423400879 0.642717361450195312 133 169 0 239 17
8.27227401733398438 2.44998884201049805 0.612627208232879639 133 169 0 239 17
8.22689437866210938 2.50096917152404785 0.669393002986907959 133 169 0 239 17
8.22480106353759766 2.49438762664794922 0.720286011695861816 133 169 0 239 17
8.30554771423339844 2.46025300025939941 0.747806429862976074 133 169 0 239 17
8.33299636840820312 2.37700867652893066 0.56335681676864624 133 169 0 239 17
8.31473255157470703 2.39648747444152832 0.545231878757476807 133 169 0 239 17
8.33827877044677734 2.37883138656616211 0.603595554828643799 133 169 0 239 17
8.31131458282470703 2.42822957038879395 0.718540549278259277 133 169 0 239 17
8.34940338134765625 2.45563435554504395 0.770837366580963135 133 169 0 239 17
8.35607814788818359 2.37219405174255371 0.673502624034881592 133 169 0 239 17
8.34958648681640625 2.38935399055480957 0.700001001358032227 133 169 0 239 17
8.20516109466552734 2.51207327842712402 0.739802241325378418 133 169 0 239 17
8.21189117431640625 2.50702810287475586 0.756975114345550537 133 169 0 239 17
8.24664974212646484 2.4785468578338623 0.74261021614074707 133 169 0 239 17
8.30196475982666016 2.49017524719238281 0.760070860385894775 133 169 0 239 17
8.28528308868408203 2.5453031063079834 0.772054433822631836 133 169 0 239 17
8.25739097595214844 2.49369549751281738 0.757801711559295654 133 169 0 239 17
8.26415061950683594 2.46842002868652344 0.724410295486450195 133 169 0 239 17
8.32463359832763672 2.42044258117675781 0.647599995136260986 133 169 0 239 17
8.25189018249511719 2.4853215217590332 0.673704802989959717 133 169 0 239 17
8.27645206451416016 2.4645390510559082 0.676115036010742188 133 169 0 239 17
8.35484123229980469 2.40518784523010254 0.734283208847045898 133 169 0 239 17
8.37038040161132812 2.38028597831726074 0.736238539218902588 133 169 0 239 17
8.02955722808837891 2.83880972862243652 0.491046220064163208 133 169 0 239 17
8.07795906066894531 2.87751269340515137 0.364225387573242188 133 169 0 239 17
8.02605342864990234 2.85105657577514648 0.439099609851837158 133 169 0 239 17
8.01021194458007812 2.84291791915893555 0.399870216846466064 133 169 0 239 17
8.12204265594482422 2.59991860389709473 0.581273317337036133 133 169 0 239 17
8.12087059020996094 2.58773660659790039 0.495062440633773804 133 169 0 239 17
8.14734649658203125 2.5503084659576416 0.521808803081512451 133 169 0 239 17
8.02051162719726562 2.7810971736907959 0.297422587871551514 133 169 0 239 17
8.13069248199462891 2.89239668846130371 0.348731338977813721 133 169 0 239 17
8.03771400451660156 2.85250473022460938 0.4930306077003479 133 169 0 239 17
8.06072711944580078 2.86623239517211914 0.488395452499389648 133 169 0 239 17
8.06106090545654297 2.85394930839538574 0.536100924015045166 133 169 0 239 17
8.02775001525878906 2.82482004165649414 0.499849528074264526 133 169 0 239 17
8.07503414154052734 2.78560042381286621 0.28406938910484314 133 169 0 239 17
8.12253952026367188 2.73418402671813965 0.234838739037513733 133 169 0 239 17
8.10834217071533203 2.74444127082824707 0.250371754169464111 133 169 0 239 17
8.06743621826171875 2.75914597511291504 0.273171901702880859 133 169 0 239 17
8.15633869171142578 2.7579193115234375 0.245624437928199768 133 169 0 239 17
8.04385280609130859 2.74011087417602539 0.466456800699234009 133 169 0 239 17
8.0243072509765625 2.77170681953430176 0.409954667091369629 133 169 0 239 17
8.01298999786376953 2.82139945030212402 0.415871649980545044 133 169 0 239 17
8.05274105072021484 2.70288825035095215 0.417479038238525391 133 169 0 239 17
7.96157503128051758 2.70419168472290039 0.281801819801330566 133 169 0 239 17
7.86182546615600586 2.7496337890625 0.338900148868560791 133 169 0 239 17
7.92625808715820312 2.72194075584411621 0.299810439348220825 133 169 0 239 17
8.10184097290039062 2.87785577774047852 0.479062497615814209 133 169 0 239 17
8.11301422119140625 2.87373805046081543 0.532499969005584717 133 169 0 239 17
8.04787921905517578 2.86785697937011719 0.430120915174484253 133 169 0 239 17
8.13037586212158203 2.89375114440917969 0.399540364742279053 133 169 0 239 17
8.13198661804199219 2.89037108421325684 0.446303099393844604 133 169 0 239 17
8.15420246124267578 2.88386154174804688 0.502048194408416748 133 169 0 239 17
7.98183107376098633 2.83004260063171387 0.370803713798522949 133 169 0 239 17
7.92567348480224609 2.78691506385803223 0.336349368095397949 133 169 0 239 17
7.96531295776367188 2.82617378234863281 0.350027799606323242 133 169 0 239 17
7.99337625503540039 2.82348418235778809 0.331114083528518677 133 169 0 239 17
7.9405217170715332 2.81404781341552734 0.358760446310043335 133 169 0 239 17
8.06913566589355469 2.66091465950012207 0.440934181213378906 133 169 0 239 17
8.03345966339111328 2.79395699501037598 0.493006795644760132 133 169 0 239 17
8.05405616760253906 2.76645731925964355 0.550738215446472168 133 169 0 239 17
8.05499935150146484 2.7248692512512207 0.494999974966049194 133 169 0 239 17
8.08712100982666016 2.65259981155395508 0.504862725734710693 133 169 0 239 17
8.10436916351318359 2.59134578704833984 0.434830516576766968 133 169 0 239 17
8.1321258544921875 2.54920172691345215 0.430882662534713745 133 169 0 239 17
8.07414054870605469 2.8061223030090332 0.293937444686889648 133 169 0 239 17
8.07849884033203125 2.84287691116333008 0.311495393514633179 133 169 0 239 17
8.04482364654541016 2.86515283584594727 0.356301158666610718 133 169 0 239 17
8.02090263366699219 2.85369729995727539 0.376610487699508667 133 169 0 239 17
8.06088161468505859 2.8692018985748291 0.344321787357330322 133 169 0 239 17
8.12287998199462891 2.78052186965942383 0.268084347248077393 133 169 0 239 17
8.12529659271240234 2.8764188289642334 0.315181970596313477 133 169 0 239 17
8.13505268096923828 2.82425117492675781 0.277090907096862793 133 169 0 239 17
8.03367519378662109 2.71825003623962402 0.263928413391113281 133 169 0 239 17
8.0621185302734375 2.85690069198608398 0.327972710132598877 133 169 0 239 17
8.03753376007080078 2.80885887145996094 0.54221111536026001 133 169 0 239 17
8.04622173309326172 2.83606076240539551 0.55413132905960083 133 169 0 239 17
8.05922317504882812 2.83733916282653809 0.605003237724304199 133 169 0 239 17
8.04828834533691406 2.79477524757385254 0.587166845798492432 133 169 0 239 17
8.04624748229980469 2.82000994682312012 0.582458674907684326 133 169 0 239 17
8.05207157135009766 2.81940364837646484 0.629548430442810059 133 169 0 239 17
8.23682212829589844 2.72977709770202637 0.691565454006195068 133 169 0 239 17
8.27235507965087891 2.64289164543151855 0.695583999156951904 133 169 0 239 17
8.16390419006347656 2.87389755249023438 0.619501173496246338 133 169 0 239 17
8.15206432342529297 2.88097834587097168 0.552748203277587891 133 169 0 239 17
8.11095333099365234 2.64282822608947754 0.651720762252807617 133 169 0 239 17
8.10285472869873047 2.68418240547180176 0.661434292793273926 133 169 0 239 17
8.166259765625 2.67894077301025391 0.6801643967628479 133 169 0 239 17
8.1238861083984375 2.68779277801513672 0.675064682960510254 133 169 0 239 17
8.16598224639892578 2.65848183631896973 0.684011459350585938 133 169 0 239 17
8.12519359588623047 2.6335136890411377 0.6722983717918396 133 169 0 239 17
8.22092628479003906 2.73439431190490723 0.685574710369110107 133 169 0 239 17
8.10660552978515625 2.78798961639404297 0.671588361263275146 133 169 0 239 17
8.16082859039306641 2.55615115165710449 0.648635447025299072 133 169 0 239 17
8.13053131103515625 2.60226058959960938 0.660396754741668701 133 169 0 239 17
8.15179061889648438 2.59598779678344727 0.689685642719268799 133 169 0 239 17
8.23566722869873047 2.59727811813354492 0.770285427570343018 133 169 0 239 17
8.28219699859619141 2.5825037956237793 0.766843795776367188 133 169 0 239 17
8.29386138916015625 2.60481905937194824 0.771218001842498779 133 169 0 239 17
8.30827713012695312 2.5721435546875 0.785840988159179688 133 169 0 239 17
8.30807685852050781 2.55133843421936035 0.777418673038482666 133 169 0 239 17
8.28198719024658203 2.61484074592590332 0.744684040546417236 133 169 0 239 17
8.24647235870361328 2.62259125709533691 0.706995189189910889 133 169 0 239 17
8.26840782165527344 2.60656166076660156 0.744392275810241699 133 169 0 239 17
8.23839378356933594 2.61178874969482422 0.746050894260406494 133 169 0 239 17
8.21079826354980469 2.71367955207824707 0.682960212230682373 133 169 0 239 17
8.24998950958251953 2.65614604949951172 0.684545040130615234 133 169 0 239 17
8.15231800079345703 2.63104772567749023 0.686019718647003174 133 169 0 239 17
8.17089271545410156 2.56147670745849609 0.686486423015594482 133 169 0 239 17
8.06389617919921875 2.80182552337646484 0.652904212474822998 133 169 0 239 17
8.06375217437744141 2.73749947547912598 0.594381511211395264 133 169 0 239 17
8.07057952880859375 2.71960210800170898 0.544561147689819336 133 169 0 239 17
8.05654239654541016 2.78925991058349609 0.633633196353912354 133 169 0 239 17
8.22678565979003906 2.57762598991394043 0.774063944816589355 133 169 0 239 17
8.1779327392578125 2.5821845531463623 0.767744898796081543 133 169 0 239 17
8.19488716125488281 2.60502147674560547 0.767395377159118652 133 169 0 239 17
8.16147613525390625 2.60106730461120605 0.750033557415008545 133 169 0 239 17
8.19572067260742188 2.6197056770324707 0.753991425037384033 133 169 0 239 17
8.15392971038818359 2.61041259765625 0.71199333667755127 133 169 0 239 17
8.19804859161376953 2.63271856307983398 0.710385322570800781 133 169 0 239 17
8.17454051971435547 2.5535433292388916 0.74837726354598999 133 169 0 239 17
8.2127227783203125 2.52466082572937012 0.765160620212554932 133 169 0 239 17
8.17362594604492188 2.61912751197814941 0.748113930225372314 133 169 0 239 17
8.07634258270263672 2.83580780029296875 0.652408182621002197 133 169 0 239 17
8.07021522521972656 2.84950923919677734 0.581492424011230469 133 169 0 239 17
8.10595798492431641 2.8526911735534668 0.609463989734649658 133 169 0 239 17
8.11508464813232422 2.8679044246673584 0.580436944961547852 133 169 0 239 17
8.13426017761230469 2.86822032928466797 0.596230387687683105 133 169 0 239 17
8.11677932739257812 2.62089014053344727 0.621894657611846924 133 169 0 239 17
8.09256076812744141 2.66157889366149902 0.579675734043121338 133 169 0 239 17
8.09706687927246094 2.67142701148986816 0.627157509326934814 133 169 0 239 17
8.10848903656005859 2.84814643859863281 0.650972485542297363 133 169 0 239 17
8.13414859771728516 2.84297084808349609 0.66612166166305542 133 169 0 239 17
8.19297504425048828 2.79523777961730957 0.683247745037078857 133 169 0 239 17
8.07964801788330078 2.82050848007202148 0.663199305534362793 133 169 0 239 17
8.07656383514404297 2.74449276924133301 0.656165778636932373 133 169 0 239 17
8.26293277740478516 2.62951207160949707 0.69472205638885498 133 169 0 239 17
8.16164016723632812 2.58206939697265625 0.750156998634338379 133 169 0 239 17
8.17771434783935547 2.63499355316162109 0.698356330394744873 133 169 0 239 17
8.09053134918212891 2.73439598083496094 0.668007016181945801 133 169 0 239 17
8.140838623046875 2.73124980926513672 0.67652815580368042 133 169 0 239 17
8.16209983825683594 2.82462692260742188 0.67686992883682251 133 169 0 239 17
8.17841243743896484 2.83924603462219238 0.679245412349700928 133 169 0 239 17
8.17037105560302734 2.85973215103149414 0.661451041698455811 133 169 0 239 17
7.72219610214233398 2.45933389663696289 0.21640130877494812 133 169 0 239 17
7.74163246154785156 2.43228840827941895 0.143197983503341675 133 169 0 239 17
7.7510676383972168 2.43944859504699707 0.187276393175125122 133 169 0 239 17
7.73672676086425781 2.44871640205383301 0.214605554938316345 133 169 0 239 17
7.71568632125854492 2.46286177635192871 0.235340148210525513 133 169 0 239 17
7.66581869125366211 2.5307765007019043 0.163413792848587036 133 169 0 239 17
7.718475341796875 2.45438599586486816 0.156635940074920654 133 169 0 239 17
7.71200990676879883 2.43919062614440918 0.0958429723978042603 133 169 0 239 17
7.68126916885375977 2.49450969696044922 0.151429116725921631 133 169 0 239 17
7.70436716079711914 2.45334672927856445 0.11513713002204895 133 169 0 239 17
7.67836952209472656 2.52037286758422852 0.18897286057472229 133 169 0 239 17
7.69433259963989258 2.50096535682678223 0.218705460429191589 133 169 0 239 17
7.70678901672363281 2.47380566596984863 0.178012505173683167 133 169 0 239 17
7.64810466766357422 2.52985382080078125 0.054899364709854126 133 169 0 239 17
7.66373252868652344 2.52870297431945801 0.126196995377540588 133 169 0 239 17
7.67095136642456055 2.49124670028686523 0.0863442718982696533 133 169 0 239 17
7.68156671524047852 2.58099985122680664 0.156394034624099731 133 169 0 239 17
7.73643827438354492 2.64481687545776367 0.10334208607673645 133 169 0 239 17
7.71149539947509766 2.60276484489440918 0.218274503946304321 133 169 0 239 17
7.74876499176025391 2.63576889038085938 0.216025188565254211 133 169 0 239 17
7.700927734375 2.59897947311401367 0.185949340462684631 133 169 0 239 17
7.6776585578918457 2.54922270774841309 0.213755607604980469 133 169 0 239 17
7.68879604339599609 2.6001589298248291 0.109017804265022278 133 169 0 239 17
7.66839981079101562 2.5554661750793457 0.167408868670463562 133 169 0 239 17
7.77681064605712891 2.65161657333374023 0.22552141547203064 133 169 0 239 17
7.80442714691162109 2.65415549278259277 0.202109917998313904 133 169 0 239 17
7.77880716323852539 2.65159797668457031 0.182578682899475098 133 169 0 239 17
7.81194925308227539 2.65564727783203125 0.138579517602920532 133 169 0 239 17
7.80523061752319336 2.65673685073852539 0.229867756366729736 133 169 0 239 17
7.79510259628295898 2.67374086380004883 0.0782340168952941895 133 169 0 239 17
7.83479881286621094 2.65672469139099121 0.0848535820841789246 133 169 0 239 17
7.75407743453979492 2.6399235725402832 0.174085274338722229 133 169 0 239 17
7.79813337326049805 2.66146516799926758 0.110710412263870239 133 169 0 239 17
7.77477598190307617 2.65712428092956543 0.131024688482284546 133 169 0 239 17
7.85042810440063477 2.64306330680847168 0.157511323690414429 133 169 0 239 17
7.65567445755004883 2.55065584182739258 0.0963035300374031067 133 169 0 239 17
7.66738510131835938 2.56439542770385742 0.126730874180793762 133 169 0 239 17
7.69758510589599609 2.63692045211791992 0.0461787693202495575 133 169 0 239 17
7.89948940277099609 2.63721823692321777 0.2033376544713974 133 169 0 239 17
7.84909343719482422 2.64292430877685547 0.209334224462509155 133 169 0 239 17
7.8940272331237793 2.62737298011779785 0.0927352458238601685 133 169 0 239 17
7.66235876083374023 2.5980069637298584 0.0478268899023532867 133 169 0 239 17
7.65296077728271484 2.56763124465942383 0.058256145566701889 133 169 0 239 17
7.74532938003540039 2.64285802841186523 0.144405454397201538 133 169 0 239 17
7.76803064346313477 2.67431426048278809 0.0634005218744277954 133 169 0 239 17
7.73526954650878906 2.65955424308776855 0.0582905635237693787 133 169 0 239 17
7.68522882461547852 2.56778955459594727 0.227324455976486206 133 169 0 239 17
7.87549734115600586 2.65017151832580566 0.0673978254199028015 133 169 0 239 17
