ply
format ascii 1.0
element vertex 623
property float x
property float y
property float z
property uchar red
property uchar green
property uchar blue
property uchar alpha
property uint label
end_header
3.18324995040893555 4.97780179977416992 0.803367435932159424 119 77 0 250 6
3.22424626350402832 4.79556035995483398 0.762071549892425537 119 77 0 250 6
3.2661280632019043 4.79392433166503906 0.753217637538909912 119 77 0 250 6
3.12116527557373047 4.87747621536254883 0.855069816112518311 119 77 0 250 6
3.15505218505859375 4.87552356719970703 0.850157797336578369 119 77 0 250 6
3.15592741966247559 4.89787530899047852 0.845553398132324219 119 77 0 250 6
3.11256909370422363 4.94505167007446289 0.820344328880310059 119 77 0 250 6
3.17498397827148438 4.94893741607666016 0.819015800952911377 119 77 0 250 6
3.07777595520019531 4.93060636520385742 0.825000524520874023 119 77 0 250 6
3.04497551918029785 4.9122624397277832 0.835634469985961914 119 77 0 250 6
3.08056807518005371 4.89894628524780273 0.848638653755187988 119 77 0 250 6
3.09297704696655273 4.92667293548583984 0.835327565670013428 119 77 0 250 6
3.05622959136962891 4.89552831649780273 0.843522608280181885 119 77 0 250 6
3.21881270408630371 4.78790807723999023 0.735104680061340332 119 77 0 250 6
3.21786952018737793 4.82049369812011719 0.801073074340820312 119 77 0 250 6
3.25969910621643066 4.85997962951660156 0.812598228454589844 119 77 0 250 6
3.20871710777282715 4.85748910903930664 0.823995888233184814 119 77 0 250 6
3.33189606666564941 4.80269670486450195 0.754734337329864502 119 77 0 250 6
3.31908249855041504 4.83984661102294922 0.790406346321105957 119 77 0 250 6
3.25763940811157227 4.80576324462890625 0.780492186546325684 119 77 0 250 6
3.37529158592224121 4.83742427825927734 0.780211567878723145 119 77 0 250 6
3.28616166114807129 4.82224464416503906 0.788450479507446289 119 77 0 250 6
3.17038893699645996 4.79452800750732422 0.731745481491088867 119 77 0 250 6
3.17372655868530273 4.83560895919799805 0.81439208984375 119 77 0 250 6
3.13895606994628906 4.85988235473632812 0.84701073169708252 119 77 0 250 6
3.11831021308898926 4.84912252426147461 0.831391394138336182 119 77 0 250 6
3.09598541259765625 4.86888456344604492 0.847676455974578857 119 77 0 250 6
3.27300405502319336 4.99475717544555664 0.79497528076171875 119 77 0 250 6
3.34491658210754395 4.99429464340209961 0.788364529609680176 119 77 0 250 6
2.50358843803405762 5.27566051483154297 0.69865882396697998 119 77 0 250 6
2.46413636207580566 5.27179431915283203 0.676122725009918213 119 77 0 250 6
2.3295745849609375 5.25561332702636719 0.752494394779205322 119 77 0 250 6
2.36653923988342285 5.25634956359863281 0.753091037273406982 119 77 0 250 6
2.33583259582519531 5.24194145202636719 0.752546370029449463 119 77 0 250 6
2.36897587776184082 5.23238897323608398 0.768891751766204834 119 77 0 250 6
2.39013957977294922 5.24561834335327148 0.77149432897567749 119 77 0 250 6
2.45575094223022461 5.26737689971923828 0.766865432262420654 119 77 0 250 6
2.42645049095153809 5.2649846076965332 0.742679059505462646 119 77 0 250 6
2.41309642791748047 5.25815916061401367 0.769383728504180908 119 77 0 250 6
2.41981673240661621 5.27785253524780273 0.656990647315979004 119 77 0 250 6
2.40614962577819824 5.27242183685302734 0.715799927711486816 119 77 0 250 6
2.43399953842163086 5.28478145599365234 0.64471358060836792 119 77 0 250 6
2.4742128849029541 5.27446889877319336 0.733163714408874512 119 77 0 250 6
2.36085367202758789 5.28379201889038086 0.692058682441711426 119 77 0 250 6
2.36692166328430176 5.28519248962402344 0.6606789231300354 119 77 0 250 6
2.33596110343933105 5.2765355110168457 0.626781761646270752 119 77 0 250 6
2.36874818801879883 5.29485321044921875 0.629331350326538086 119 77 0 250 6
2.39148283004760742 5.2911376953125 0.633269786834716797 119 77 0 250 6
2.34990429878234863 5.27693653106689453 0.718307971954345703 119 77 0 250 6
2.32099318504333496 5.29580926895141602 0.654031336307525635 119 77 0 250 6
2.44767451286315918 5.27077293395996094 0.71725928783416748 119 77 0 250 6
2.31350898742675781 5.2651667594909668 0.673121094703674316 119 77 0 250 6
2.30592536926269531 5.24737024307250977 0.705845892429351807 119 77 0 250 6
2.29944896697998047 5.2611546516418457 0.738307535648345947 119 77 0 250 6
2.27589702606201172 5.26512241363525391 0.70436549186706543 119 77 0 250 6
2.26327013969421387 5.27544832229614258 0.685104489326477051 119 77 0 250 6
2.33265471458435059 5.25805330276489258 0.642767071723937988 119 77 0 250 6
2.35100960731506348 5.27461814880371094 0.654872596263885498 119 77 0 250 6
2.52728748321533203 5.28548860549926758 0.63256371021270752 119 77 0 250 6
2.25996136665344238 5.28453350067138672 0.659936606884002686 119 77 0 250 6
2.29482436180114746 5.27790594100952148 0.640051126480102539 119 77 0 250 6
2.30541181564331055 5.29100990295410156 0.695534765720367432 119 77 0 250 6
2.24979662895202637 5.28536272048950195 0.688878059387207031 119 77 0 250 6
2.26568269729614258 5.29717206954956055 0.663858711719512939 119 77 0 250 6
2.31790590286254883 5.29944038391113281 0.627150475978851318 119 77 0 250 6
2.26221823692321777 5.29505538940429688 0.629398882389068604 119 77 0 250 6
2.31792402267456055 5.29512166976928711 0.609290361404418945 119 77 0 250 6
2.30195355415344238 5.27372598648071289 0.735927760601043701 119 77 0 250 6
2.45506882667541504 5.29040956497192383 0.616578519344329834 119 77 0 250 6
2.49632573127746582 5.28593015670776367 0.625548362731933594 119 77 0 250 6
2.53772497177124023 5.27995014190673828 0.664599299430847168 119 77 0 250 6
2.50677871704101562 5.27944803237915039 0.663242459297180176 119 77 0 250 6
2.53523421287536621 5.29178953170776367 0.592720150947570801 119 77 0 250 6
2.34463310241699219 4.72430562973022461 0.793347299098968506 119 77 0 250 6
2.36615633964538574 4.74238061904907227 0.775895476341247559 119 77 0 250 6
2.50611567497253418 4.61713647842407227 0.813789188861846924 119 77 0 250 6
2.55579066276550293 4.60584926605224609 0.813268899917602539 119 77 0 250 6
2.39080238342285156 4.72190141677856445 0.845447719097137451 119 77 0 250 6
2.3715059757232666 4.6696162223815918 0.830285549163818359 119 77 0 250 6
2.36754894256591797 4.66187381744384766 0.799278914928436279 119 77 0 250 6
2.35435152053833008 4.69316673278808594 0.841771781444549561 119 77 0 250 6
2.3710932731628418 4.68330621719360352 0.821432888507843018 119 77 0 250 6
2.35620570182800293 4.68290328979492188 0.849525749683380127 119 77 0 250 6
2.38269758224487305 4.71040105819702148 0.774989306926727295 119 77 0 250 6
2.37778711318969727 4.6471714973449707 0.782959938049316406 119 77 0 250 6
2.39488935470581055 4.6622614860534668 0.773987829685211182 119 77 0 250 6
2.35972809791564941 4.68610715866088867 0.779505074024200439 119 77 0 250 6
2.49526381492614746 4.58688592910766602 0.725830614566802979 119 77 0 250 6
2.45546722412109375 4.60347843170166016 0.742750048637390137 119 77 0 250 6
2.52702522277832031 4.58885049819946289 0.750880420207977295 119 77 0 250 6
2.49723458290100098 4.61002159118652344 0.775650560855865479 119 77 0 250 6
2.38872122764587402 4.68616580963134766 0.765435516834259033 119 77 0 250 6
2.40763115882873535 4.63539266586303711 0.765873908996582031 119 77 0 250 6
2.47455215454101562 4.62146234512329102 0.79168468713760376 119 77 0 250 6
2.39179253578186035 4.67331457138061523 0.858985245227813721 119 77 0 250 6
2.44643044471740723 4.6629939079284668 0.862171947956085205 119 77 0 250 6
2.4285578727722168 4.64023208618164062 0.810302078723907471 119 77 0 250 6
2.47334098815917969 4.63244390487670898 0.828790485858917236 119 77 0 250 6
2.44472122192382812 4.64499998092651367 0.834999978542327881 119 77 0 250 6
2.46936774253845215 4.64982461929321289 0.855513513088226318 119 77 0 250 6
2.417999267578125 4.65285491943359375 0.833032488822937012 119 77 0 250 6
2.47505378723144531 4.60862827301025391 0.754540443420410156 119 77 0 250 6
2.41529035568237305 4.63985538482666016 0.77722698450088501 119 77 0 250 6
2.79632663726806641 4.61858415603637695 0.779374241828918457 119 77 0 250 6
2.69565725326538086 4.58876752853393555 0.791700899600982666 119 77 0 250 6
2.64625096321105957 4.558074951171875 0.735061168670654297 119 77 0 250 6
2.67652106285095215 4.56713294982910156 0.756218612194061279 119 77 0 250 6
2.72689151763916016 4.57854795455932617 0.76471257209777832 119 77 0 250 6
2.91870713233947754 4.82474279403686523 0.774833381175994873 119 77 0 250 6
2.92922306060791016 4.79020166397094727 0.78868556022644043 119 77 0 250 6
2.90402054786682129 4.81577587127685547 0.777516365051269531 119 77 0 250 6
2.89495658874511719 4.86365890502929688 0.745705664157867432 119 77 0 250 6
2.86606144905090332 4.82945442199707031 0.771131992340087891 119 77 0 250 6
2.5838172435760498 4.59554433822631836 0.801225960254669189 119 77 0 250 6
2.60691952705383301 4.57422447204589844 0.7663918137550354 119 77 0 250 6
2.61361432075500488 4.55797529220581055 0.724660694599151611 119 77 0 250 6
2.55356526374816895 4.56954717636108398 0.723388612270355225 119 77 0 250 6
2.57866168022155762 4.57320261001586914 0.746774077415466309 119 77 0 250 6
3.0841057300567627 4.79366540908813477 0.781686663627624512 119 77 0 250 6
3.03857707977294922 4.82430171966552734 0.768735826015472412 119 77 0 250 6
3.08507156372070312 4.81426334381103516 0.776374578475952148 119 77 0 250 6
3.10982155799865723 4.82094860076904297 0.780989468097686768 119 77 0 250 6
3.05762457847595215 4.84302997589111328 0.769264101982116699 119 77 0 250 6
3.07747936248779297 4.84435653686523438 0.782876193523406982 119 77 0 250 6
2.64563274383544922 4.58473348617553711 0.795288026332855225 119 77 0 250 6
2.53304266929626465 4.6272435188293457 0.839590489864349365 119 77 0 250 6
2.7958676815032959 4.71686792373657227 0.811868250370025635 119 77 0 250 6
3.04325413703918457 4.68929433822631836 0.757233858108520508 119 77 0 250 6
2.80705952644348145 4.77585363388061523 0.798932254314422607 119 77 0 250 6
2.86398625373840332 4.8011627197265625 0.786538660526275635 119 77 0 250 6
2.87284183502197266 4.86813974380493164 0.743807792663574219 119 77 0 250 6
2.94794225692749023 4.6738739013671875 0.777464210987091064 119 77 0 250 6
2.94722318649291992 4.69266653060913086 0.789950549602508545 119 77 0 250 6
2.97514867782592773 4.66243171691894531 0.756697952747344971 119 77 0 250 6
2.72435259819030762 4.71486377716064453 0.812327861785888672 119 77 0 250 6
2.83665323257446289 4.74932575225830078 0.805735468864440918 119 77 0 250 6
2.9278876781463623 4.76985311508178711 0.796609282493591309 119 77 0 250 6
2.94823431968688965 4.72656869888305664 0.799993276596069336 119 77 0 250 6
2.72833895683288574 4.73839426040649414 0.809227943420410156 119 77 0 250 6
2.75235795974731445 4.60556221008300781 0.788723587989807129 119 77 0 250 6
2.78573465347290039 4.5972137451171875 0.760681986808776855 119 77 0 250 6
2.88968300819396973 4.68543767929077148 0.795439302921295166 119 77 0 250 6
2.84993076324462891 4.64761829376220703 0.785836637020111084 119 77 0 250 6
2.73293948173522949 4.79766464233398438 0.792108297348022461 119 77 0 250 6
2.7747657299041748 4.81253623962402344 0.785691201686859131 119 77 0 250 6
2.85039997100830078 4.88880014419555664 0.723064124584197998 119 77 0 250 6
3.13425827026367188 4.75244235992431641 0.74184262752532959 119 77 0 250 6
3.15357637405395508 4.7742772102355957 0.72701871395111084 119 77 0 250 6
3.14013504981994629 4.78776264190673828 0.761824905872344971 119 77 0 250 6
2.81775164604187012 4.68767786026000977 0.810300588607788086 119 77 0 250 6
2.8721623420715332 4.72149801254272461 0.805279135704040527 119 77 0 250 6
2.81753182411193848 4.65984106063842773 0.802198290824890137 119 77 0 250 6
2.90212273597717285 4.66110801696777344 0.780036091804504395 119 77 0 250 6
2.86669039726257324 4.63090324401855469 0.761955201625823975 119 77 0 250 6
2.93483948707580566 4.64681577682495117 0.756813943386077881 119 77 0 250 6
3.0093846321105957 4.75742340087890625 0.791159391403198242 119 77 0 250 6
2.97561764717102051 4.78735494613647461 0.787705600261688232 119 77 0 250 6
2.89508676528930664 4.8421635627746582 0.764575779438018799 119 77 0 250 6
2.83392739295959473 4.8463749885559082 0.760839760303497314 119 77 0 250 6
2.84349298477172852 4.87235403060913086 0.745439589023590088 119 77 0 250 6
3.06824564933776855 4.74444675445556641 0.785271346569061279 119 77 0 250 6
3.12524199485778809 4.80296611785888672 0.777556419372558594 119 77 0 250 6
3.08207130432128906 4.70767021179199219 0.75600898265838623 119 77 0 250 6
3.01475930213928223 4.73743200302124023 0.791033267974853516 119 77 0 250 6
3.06465888023376465 4.72066688537597656 0.775247395038604736 119 77 0 250 6
3.11903858184814453 4.76452064514160156 0.77324831485748291 119 77 0 250 6
3.00494194030761719 4.8224334716796875 0.77199167013168335 119 77 0 250 6
2.57994890213012695 4.60975837707519531 0.826151669025421143 119 77 0 250 6
2.36038565635681152 4.49436044692993164 0.801355302333831787 119 77 0 250 6
2.41470932960510254 4.43842363357543945 0.801100730895996094 119 77 0 250 6
2.40899658203125 4.45821046829223633 0.812410473823547363 119 77 0 250 6
2.44959855079650879 4.45749568939208984 0.801667392253875732 119 77 0 250 6
2.4470064640045166 4.47646903991699219 0.808001518249511719 119 77 0 250 6
2.35800671577453613 4.35026216506958008 0.75728607177734375 119 77 0 250 6
2.31823992729187012 4.3550114631652832 0.749429821968078613 119 77 0 250 6
2.39719343185424805 4.41320371627807617 0.783664166927337646 119 77 0 250 6
2.33613109588623047 4.50610780715942383 0.760530471801757812 119 77 0 250 6
2.33587265014648438 4.50438690185546875 0.790038943290710449 119 77 0 250 6
2.33519721031188965 4.52112817764282227 0.784435391426086426 119 77 0 250 6
2.3459322452545166 4.49053621292114258 0.771584749221801758 119 77 0 250 6
2.32092189788818359 4.47407102584838867 0.779534697532653809 119 77 0 250 6
2.38706445693969727 4.51068210601806641 0.791594743728637695 119 77 0 250 6
2.39894509315490723 4.53647804260253906 0.784568607807159424 119 77 0 250 6
2.30976200103759766 4.38302469253540039 0.753902912139892578 119 77 0 250 6
2.30041098594665527 4.42705917358398438 0.761985599994659424 119 77 0 250 6
2.31529021263122559 4.39931392669677734 0.766615092754364014 119 77 0 250 6
2.44743633270263672 4.42850875854492188 0.785844087600708008 119 77 0 250 6
2.47154641151428223 4.47168302536010742 0.781393051147460938 119 77 0 250 6
2.43316793441772461 4.48614645004272461 0.805462062358856201 119 77 0 250 6
2.55840826034545898 4.47256851196289062 0.764662563800811768 119 77 0 250 6
2.50022482872009277 4.46238946914672852 0.77248990535736084 119 77 0 250 6
2.48856759071350098 4.44020462036132812 0.778601109981536865 119 77 0 250 6
2.47728872299194336 4.39889860153198242 0.779118180274963379 119 77 0 250 6
2.43577027320861816 4.52573013305664062 0.773160398006439209 119 77 0 250 6
2.43082523345947266 4.51085138320922852 0.78335118293762207 119 77 0 250 6
2.29343104362487793 4.49714994430541992 0.798192977905273438 119 77 0 250 6
2.29231810569763184 4.53021764755249023 0.76396334171295166 119 77 0 250 6
2.32052922248840332 4.38822317123413086 0.744456052780151367 119 77 0 250 6
2.31908512115478516 4.45200347900390625 0.790585935115814209 119 77 0 250 6
2.34839940071105957 4.41741466522216797 0.780756294727325439 119 77 0 250 6
2.3154449462890625 4.42540931701660156 0.779783785343170166 119 77 0 250 6
2.38632774353027344 4.43981647491455078 0.806333661079406738 119 77 0 250 6
2.33482050895690918 4.44612598419189453 0.804486453533172607 119 77 0 250 6
2.3466179370880127 4.47853565216064453 0.810511946678161621 119 77 0 250 6
2.3033447265625 4.35970354080200195 0.733084559440612793 119 77 0 250 6
2.48225593566894531 4.50571727752685547 0.75535130500793457 119 77 0 250 6
2.51436877250671387 4.48884677886962891 0.757963240146636963 119 77 0 250 6
2.49751591682434082 4.54503107070922852 0.723207771778106689 119 77 0 250 6
2.53466510772705078 4.51108551025390625 0.740123748779296875 119 77 0 250 6
2.54812932014465332 4.54216432571411133 0.720629513263702393 119 77 0 250 6
2.39991879463195801 4.38278293609619141 0.774913966655731201 119 77 0 250 6
2.30324316024780273 4.48321056365966797 0.805344700813293457 119 77 0 250 6
2.49580001831054688 4.56840085983276367 0.715971648693084717 119 77 0 250 6
2.40264272689819336 4.64078760147094727 0.706461966037750244 119 77 0 250 6
2.25197672843933105 4.58485126495361328 0.759659349918365479 119 77 0 250 6
2.29648137092590332 4.63117599487304688 0.749190390110015869 119 77 0 250 6
2.31008291244506836 4.60887289047241211 0.782666265964508057 119 77 0 250 6
2.25748658180236816 4.6196742057800293 0.774789094924926758 119 77 0 250 6
2.30031061172485352 4.56581640243530273 0.784883797168731689 119 77 0 250 6
2.24913597106933594 4.58246135711669922 0.776874184608459473 119 77 0 250 6
2.25836515426635742 4.54996728897094727 0.762792289257049561 119 77 0 250 6
2.25453281402587891 4.62107706069946289 0.764277338981628418 119 77 0 250 6
2.32920503616333008 4.68707180023193359 0.72569119930267334 119 77 0 250 6
2.38178443908691406 4.64940690994262695 0.735377013683319092 119 77 0 250 6
2.32417654991149902 4.63589382171630859 0.731936812400817871 119 77 0 250 6
2.3624117374420166 4.64555454254150391 0.774165868759155273 119 77 0 250 6
2.33024954795837402 4.65142345428466797 0.784795582294464111 119 77 0 250 6
2.38900971412658691 4.64319896697998047 0.776468336582183838 119 77 0 250 6
2.34018588066101074 4.66601133346557617 0.74347078800201416 119 77 0 250 6
2.24167084693908691 4.68117475509643555 0.764832615852355957 119 77 0 250 6
2.27647614479064941 4.68311548233032227 0.759367406368255615 119 77 0 250 6
2.30028033256530762 4.6688075065612793 0.74853891134262085 119 77 0 250 6
2.27526736259460449 4.64109611511230469 0.754607498645782471 119 77 0 250 6
2.24224042892456055 4.65744924545288086 0.759732365608215332 119 77 0 250 6
2.31470227241516113 4.66228961944580078 0.793006181716918945 119 77 0 250 6
2.29125356674194336 4.63242959976196289 0.78615337610244751 119 77 0 250 6
2.25545477867126465 4.65726900100708008 0.802271366119384766 119 77 0 250 6
2.20978355407714844 4.67134523391723633 0.797808349132537842 119 77 0 250 6
2.3050079345703125 4.67641544342041016 0.80560678243637085 119 77 0 250 6
2.27250337600708008 4.69590902328491211 0.804902136325836182 119 77 0 250 6
2.29917407035827637 4.6712188720703125 0.810453534126281738 119 77 0 250 6
2.26456832885742188 4.54935312271118164 0.776724696159362793 119 77 0 250 6
2.52899336814880371 4.56045246124267578 0.713625252246856689 119 77 0 250 6
2.44341731071472168 4.57810831069946289 0.749520540237426758 119 77 0 250 6
2.35434675216674805 4.65879726409912109 0.712008178234100342 119 77 0 250 6
2.39791345596313477 4.65605306625366211 0.741092264652252197 119 77 0 250 6
2.34695076942443848 4.57119512557983398 0.787109136581420898 119 77 0 250 6
2.35495519638061523 4.6211552619934082 0.782284319400787354 119 77 0 250 6
2.24160504341125488 4.69626855850219727 0.799462556838989258 119 77 0 250 6
2.24681568145751953 4.69395923614501953 0.773415327072143555 119 77 0 250 6
2.22046542167663574 4.63918685913085938 0.780811488628387451 119 77 0 250 6
2.20222163200378418 4.67522335052490234 0.777297854423522949 119 77 0 250 6
2.18273615837097168 4.65448522567749023 0.776529371738433838 119 77 0 250 6
2.22988414764404297 4.64081239700317383 0.763523578643798828 119 77 0 250 6
2.20276904106140137 4.65599393844604492 0.764183938503265381 119 77 0 250 6
2.38460826873779297 4.58532190322875977 0.784491360187530518 119 77 0 250 6
2.40573978424072266 4.59608078002929688 0.775070309638977051 119 77 0 250 6
2.67147159576416016 4.46301078796386719 0.765275359153747559 119 77 0 250 6
2.63992214202880859 4.46776199340820312 0.767118453979492188 119 77 0 250 6
2.66288113594055176 4.51002025604248047 0.758560359477996826 119 77 0 250 6
2.55795764923095703 4.43063020706176758 0.772726595401763916 119 77 0 250 6
2.5861203670501709 4.44888496398925781 0.770327091217041016 119 77 0 250 6
2.58986401557922363 4.42371082305908203 0.76474994421005249 119 77 0 250 6
2.59106993675231934 4.52653026580810547 0.733026266098022461 119 77 0 250 6
2.56715703010559082 4.50222253799438477 0.748000204563140869 119 77 0 250 6
2.64244532585144043 4.48285102844238281 0.765375137329101562 119 77 0 250 6
2.6180267333984375 4.49853181838989258 0.75731205940246582 119 77 0 250 6
2.41657280921936035 4.36116218566894531 0.0575839467346668243 119 77 0 250 6
2.42769694328308105 4.34742927551269531 0.130041211843490601 119 77 0 250 6
2.3898472785949707 4.34899425506591797 0.0731751322746276855 119 77 0 250 6
2.46298742294311523 4.35946178436279297 0.205937489867210388 119 77 0 250 6
2.47027683258056641 4.36157369613647461 0.277187466621398926 119 77 0 250 6
2.43507814407348633 4.35333061218261719 0.495792746543884277 119 77 0 250 6
2.48073053359985352 4.36520671844482422 0.521562516689300537 119 77 0 250 6
2.39633011817932129 4.34789085388183594 0.423026770353317261 119 77 0 250 6
2.35404443740844727 4.34489059448242188 0.412403970956802368 119 77 0 250 6
2.4073021411895752 4.34431028366088867 0.382850140333175659 119 77 0 250 6
2.53139519691467285 4.38663434982299805 0.122110351920127869 119 77 0 250 6
2.49316167831420898 4.37073850631713867 0.144145280122756958 119 77 0 250 6
2.46904635429382324 4.36532926559448242 0.114822693169116974 119 77 0 250 6
2.54349827766418457 4.41144752502441406 0.0576829500496387482 119 77 0 250 6
2.47447657585144043 4.38365840911865234 0.0581004321575164795 119 77 0 250 6
2.32343268394470215 4.35586261749267578 0.470465928316116333 119 77 0 250 6
2.3756248950958252 4.34939193725585938 0.481249988079071045 119 77 0 250 6
2.35463380813598633 4.34870004653930664 0.51569753885269165 119 77 0 250 6
2.33837890625 4.34554147720336914 0.527139425277709961 119 77 0 250 6
2.34068036079406738 4.35377836227416992 0.499839931726455688 119 77 0 250 6
2.54874992370605469 4.38964128494262695 0.248750001192092896 119 77 0 250 6
2.49474906921386719 4.369720458984375 0.320468753576278687 119 77 0 250 6
2.48102951049804688 4.36482429504394531 0.408124983310699463 119 77 0 250 6
2.512237548828125 4.37490034103393555 0.370000004768371582 119 77 0 250 6
2.44614648818969727 4.35465431213378906 0.401874959468841553 119 77 0 250 6
2.42888021469116211 4.34498214721679688 0.281867653131484985 119 77 0 250 6
2.51276397705078125 4.375 0.427500009536743164 119 77 0 250 6
2.4093773365020752 4.33592462539672852 0.339307039976119995 119 77 0 250 6
2.42653775215148926 4.34640741348266602 0.344360321760177612 119 77 0 250 6
2.51857423782348633 4.37831592559814453 0.555312514305114746 119 77 0 250 6
2.48000001907348633 4.36514759063720703 0.636250019073486328 119 77 0 250 6
2.32129335403442383 4.3462834358215332 0.673403799533843994 119 77 0 250 6
2.31091809272766113 4.34157228469848633 0.723002731800079346 119 77 0 250 6
2.3258061408996582 4.35942888259887695 0.53296893835067749 119 77 0 250 6
2.33467745780944824 4.36510419845581055 0.594817698001861572 119 77 0 250 6
2.32712054252624512 4.34309768676757812 0.607295334339141846 119 77 0 250 6
2.36899614334106445 4.34106254577636719 0.564745724201202393 119 77 0 250 6
2.3490290641784668 4.34084892272949219 0.632720828056335449 119 77 0 250 6
2.32117390632629395 4.35519170761108398 0.57846146821975708 119 77 0 250 6
2.33003902435302734 4.34532976150512695 0.572144567966461182 119 77 0 250 6
2.34479069709777832 4.33929014205932617 0.706329107284545898 119 77 0 250 6
2.38013839721679688 4.34003257751464844 0.735230624675750732 119 77 0 250 6
2.41325139999389648 4.34509754180908203 0.55166161060333252 119 77 0 250 6
2.32646775245666504 4.3626093864440918 0.652398347854614258 119 77 0 250 6
2.39038848876953125 4.34193086624145508 0.643359363079071045 119 77 0 250 6
2.31726622581481934 4.35499668121337891 0.650722622871398926 119 77 0 250 6
2.47683310508728027 4.365020751953125 0.719018757343292236 119 77 0 250 6
2.52999973297119141 4.38351583480834961 0.641875028610229492 119 77 0 250 6
2.40677309036254883 4.34445810317993164 0.735306680202484131 119 77 0 250 6
2.39583778381347656 4.35268068313598633 0.759788095951080322 119 77 0 250 6
2.47333168983459473 4.37392425537109375 0.763241708278656006 119 77 0 250 6
2.5210564136505127 4.38217353820800781 0.744103193283081055 119 77 0 250 6
2.41128301620483398 4.34474706649780273 0.612187504768371582 119 77 0 250 6
2.4238584041595459 4.34896659851074219 0.683125019073486328 119 77 0 250 6
2.71588134765625 4.4498906135559082 0.327619642019271851 119 77 0 250 6
2.66092944145202637 4.43013191223144531 0.349609851837158203 119 77 0 250 6
2.88452959060668945 4.51262426376342773 0.144999995827674866 119 77 0 250 6
2.55499982833862305 4.39141845703125 0.215000003576278687 119 77 0 250 6
2.93503618240356445 4.5551905632019043 0.0674284696578979492 119 77 0 250 6
2.83222198486328125 4.51883840560913086 0.0557787567377090454 119 77 0 250 6
2.81271052360534668 4.50862932205200195 0.0685914605855941772 119 77 0 250 6
2.71941137313842773 4.45518112182617188 0.129917696118354797 119 77 0 250 6
2.57121944427490234 4.3984222412109375 0.155000001192092896 119 77 0 250 6
2.65829229354858398 4.43146228790283203 0.139787793159484863 119 77 0 250 6
2.61559534072875977 4.41954851150512695 0.116421788930892944 119 77 0 250 6
2.93729472160339355 4.53063297271728516 0.33749997615814209 119 77 0 250 6
2.91499996185302734 4.52294158935546875 0.370000004768371582 119 77 0 250 6
2.73842954635620117 4.47962570190429688 0.0683881789445877075 119 77 0 250 6
2.8979644775390625 4.51667022705078125 0.219374999403953552 119 77 0 250 6
2.70850348472595215 4.47173547744750977 0.0547445118427276611 119 77 0 250 6
2.78481912612915039 4.50049543380737305 0.0577117539942264557 119 77 0 250 6
2.97524595260620117 4.54610252380371094 0.573984384536743164 119 77 0 250 6
2.89573240280151367 4.51663684844970703 0.517499983310699463 119 77 0 250 6
2.90125703811645508 4.51903915405273438 0.482343733310699463 119 77 0 250 6
2.7175590991973877 4.45196723937988281 0.177773430943489075 119 77 0 250 6
2.53248786926269531 4.38306808471679688 0.49374997615814209 119 77 0 250 6
2.57697296142578125 4.40025043487548828 0.545468747615814209 119 77 0 250 6
2.59899711608886719 4.40827465057373047 0.459765613079071045 119 77 0 250 6
2.56624031066894531 4.39504814147949219 0.310000002384185791 119 77 0 250 6
2.94041967391967773 4.53191661834716797 0.185937494039535522 119 77 0 250 6
2.61671352386474609 4.41455936431884766 0.187421873211860657 119 77 0 250 6
2.61234235763549805 4.41334342956542969 0.26804688572883606 119 77 0 250 6
2.62998270988464355 4.44034528732299805 0.0440830625593662262 119 77 0 250 6
2.69308376312255859 4.46361970901489258 0.0437618456780910492 119 77 0 250 6
2.64278507232666016 4.44732093811035156 0.0564147457480430603 119 77 0 250 6
2.6441645622253418 4.4456787109375 0.0673955678939819336 119 77 0 250 6
2.662689208984375 4.430023193359375 0.41189807653427124 119 77 0 250 6
2.63656854629516602 4.42039680480957031 0.472477942705154419 119 77 0 250 6
2.72324967384338379 4.45189952850341797 0.44093748927116394 119 77 0 250 6
2.67332744598388672 4.43555927276611328 0.305000007152557373 119 77 0 250 6
2.57865571975708008 4.39970922470092773 0.372812509536743164 119 77 0 250 6
2.7309718132019043 4.45421886444091797 0.381881088018417358 119 77 0 250 6
2.81156110763549805 4.48621082305908203 0.144999995827674866 119 77 0 250 6
2.78743720054626465 4.48002147674560547 0.120383560657501221 119 77 0 250 6
2.8323206901550293 4.50006008148193359 0.11030954122543335 119 77 0 250 6
2.87842702865600586 4.53446388244628906 0.0493419840931892395 119 77 0 250 6
2.67495632171630859 4.43623018264770508 0.232500001788139343 119 77 0 250 6
2.80586886405944824 4.48290061950683594 0.305390596389770508 119 77 0 250 6
2.81792235374450684 4.48673057556152344 0.408124983310699463 119 77 0 250 6
2.80825996398925781 4.48433876037597656 0.478125005960464478 119 77 0 250 6
2.8705589771270752 4.50737762451171875 0.256874978542327881 119 77 0 250 6
2.57903361320495605 4.42182588577270508 0.0425277836620807648 119 77 0 250 6
2.89040541648864746 4.51440858840942383 0.407499969005584717 119 77 0 250 6
2.67966914176940918 4.44472932815551758 0.110713586211204529 119 77 0 250 6
2.75705480575561523 4.46499967575073242 0.210000008344650269 119 77 0 250 6
2.82984256744384766 4.49173450469970703 0.199999988079071045 119 77 0 250 6
2.80630731582641602 4.48433113098144531 0.561874985694885254 119 77 0 250 6
2.73833584785461426 4.45862913131713867 0.486874997615814209 119 77 0 250 6
2.60500001907348633 4.40911340713500977 0.604999959468841553 119 77 0 250 6
2.65087342262268066 4.42661666870117188 0.560624957084655762 119 77 0 250 6
2.73997068405151367 4.45951652526855469 0.649374961853027344 119 77 0 250 6
2.55499982833862305 4.39125728607177734 0.704999983310699463 119 77 0 250 6
2.75733566284179688 4.49316740036010742 0.764808297157287598 119 77 0 250 6
2.90550041198730469 4.52772283554077148 0.744934618473052979 119 77 0 250 6
2.74164056777954102 4.47373533248901367 0.755361616611480713 119 77 0 250 6
2.78441548347473145 4.48259401321411133 0.744964241981506348 119 77 0 250 6
2.79054999351501465 4.48215961456298828 0.734999954700469971 119 77 0 250 6
2.92782354354858398 4.52925300598144531 0.622187495231628418 119 77 0 250 6
2.58763337135314941 4.40311574935913086 0.671249985694885254 119 77 0 250 6
2.88349652290344238 4.51276874542236328 0.573906242847442627 119 77 0 250 6
2.72824573516845703 4.45573711395263672 0.61249995231628418 119 77 0 250 6
2.65566587448120117 4.42909812927246094 0.670937478542327881 119 77 0 250 6
2.92596650123596191 4.53237724304199219 0.731896102428436279 119 77 0 250 6
2.86795902252197266 4.51951122283935547 0.756004393100738525 119 77 0 250 6
2.69159340858459473 4.44375133514404297 0.724999964237213135 119 77 0 250 6
2.63622808456420898 4.42673158645629883 0.744951307773590088 119 77 0 250 6
2.53859424591064453 4.39319324493408203 0.755227863788604736 119 77 0 250 6
2.64647483825683594 4.43654060363769531 0.755398809909820557 119 77 0 250 6
2.64503836631774902 4.42747020721435547 0.734999954700469971 119 77 0 250 6
2.87760639190673828 4.51078081130981445 0.622812449932098389 119 77 0 250 6
2.83261728286743164 4.49471855163574219 0.670937538146972656 119 77 0 250 6
2.76371002197265625 4.46976852416992188 0.707296967506408691 119 77 0 250 6
2.98782539367675781 4.55068397521972656 0.49230465292930603 119 77 0 250 6
3.39271187782287598 4.69876432418823242 0.227499991655349731 119 77 0 250 6
3.25590801239013672 4.64735031127929688 0.19874998927116394 119 77 0 250 6
3.03010034561157227 4.56498813629150391 0.379999995231628418 119 77 0 250 6
3.05989789962768555 4.5764164924621582 0.353437513113021851 119 77 0 250 6
3.3532414436340332 4.68571996688842773 0.385156244039535522 119 77 0 250 6
3.29204773902893066 4.66385030746459961 0.137173324823379517 119 77 0 250 6
3.36301374435424805 4.69613122940063477 0.110860422253608704 119 77 0 250 6
3.3343195915222168 4.70291614532470703 0.0687170475721359253 119 77 0 250 6
3.29951596260070801 4.66738224029541016 0.5703125 119 77 0 250 6
3.37840032577514648 4.69605731964111328 0.436250001192092896 119 77 0 250 6
3.11817169189453125 4.59713459014892578 0.291562497615814209 119 77 0 250 6
3.13147544860839844 4.60331535339355469 0.352499991655349731 119 77 0 250 6
3.24644041061401367 4.65134000778198242 0.118395857512950897 119 77 0 250 6
3.23285102844238281 4.64045810699462891 0.152652233839035034 119 77 0 250 6
2.94933319091796875 4.54034042358398438 0.121127575635910034 119 77 0 250 6
3.09076857566833496 4.58990812301635742 0.545000016689300537 119 77 0 250 6
3.10588240623474121 4.59484624862670898 0.521250009536743164 119 77 0 250 6
3.38784122467041016 4.69981241226196289 0.471562504768371582 119 77 0 250 6
3.1789398193359375 4.64950752258300781 0.0602625161409378052 119 77 0 250 6
3.19096994400024414 4.62403583526611328 0.275624990463256836 119 77 0 250 6
3.49282360076904297 4.7376255989074707 0.330312490463256836 119 77 0 250 6
3.13130044937133789 4.6017913818359375 0.147232815623283386 119 77 0 250 6
3.10677337646484375 4.61763763427734375 0.0667977482080459595 119 77 0 250 6
3.16831851005554199 4.62064695358276367 0.118583023548126221 119 77 0 250 6
3.29757857322692871 4.66568660736083984 0.402812480926513672 119 77 0 250 6
3.32206630706787109 4.67290401458740234 0.262109369039535522 119 77 0 250 6
3.45263195037841797 4.72202634811401367 0.263828098773956299 119 77 0 250 6
3.46763443946838379 4.73314809799194336 0.116707801818847656 119 77 0 250 6
3.46608376502990723 4.7514338493347168 0.0683953836560249329 119 77 0 250 6
3.02658939361572266 4.56881618499755859 0.121035248041152954 119 77 0 250 6
3.0727686882019043 4.58155918121337891 0.138703882694244385 119 77 0 250 6
3.16497635841369629 4.61336040496826172 0.214062482118606567 119 77 0 250 6
2.92904162406921387 4.55456399917602539 0.0536941364407539368 119 77 0 250 6
3.01294636726379395 4.58279132843017578 0.06631440669298172 119 77 0 250 6
2.98596644401550293 4.57374858856201172 0.0503226220607757568 119 77 0 250 6
3.08618402481079102 4.58669853210449219 0.434609353542327881 119 77 0 250 6
3.06284356117248535 4.5755925178527832 0.185000002384185791 119 77 0 250 6
3.26479029655456543 4.68057918548583984 0.0584574714303016663 119 77 0 250 6
3.31869816780090332 4.69963788986206055 0.0513004697859287262 119 77 0 250 6
3.22548985481262207 4.66599750518798828 0.0586641207337379456 119 77 0 250 6
3.27911543846130371 4.65937280654907227 0.489804685115814209 119 77 0 250 6
3.15494561195373535 4.61193180084228516 0.416875004768371582 119 77 0 250 6
3.19654440879821777 4.62868690490722656 0.503203153610229492 119 77 0 250 6
3.38497686386108398 4.72139549255371094 0.0677068457007408142 119 77 0 250 6
3.19653987884521484 4.62731838226318359 0.364687502384185791 119 77 0 250 6
3.30749988555908203 4.67033147811889648 0.453749984502792358 119 77 0 250 6
2.99048376083374023 4.55034065246582031 0.16002298891544342 119 77 0 250 6
3.05875015258789062 4.57431125640869141 0.229375004768371582 119 77 0 250 6
3.41568207740783691 4.70823574066162109 0.308437526226043701 119 77 0 250 6
3.43908190727233887 4.71793031692504883 0.402109384536743164 119 77 0 250 6
3.12758779525756836 4.62778472900390625 0.0533389896154403687 119 77 0 250 6
3.00286984443664551 4.55552959442138672 0.244687497615814209 119 77 0 250 6
2.95447325706481934 4.53831100463867188 0.300859361886978149 119 77 0 250 6
3.0026862621307373 4.55603122711181641 0.438749998807907104 119 77 0 250 6
3.43943524360656738 4.71520614624023438 0.169999986886978149 119 77 0 250 6
3.50215530395507812 4.74267387390136719 0.494218736886978149 119 77 0 250 6
3.4366762638092041 4.71869373321533203 0.532187461853027344 119 77 0 250 6
3.4101262092590332 4.70752620697021484 0.132691904902458191 119 77 0 250 6
3.05208182334899902 4.59913301467895508 0.0554447807371616364 119 77 0 250 6
2.94479870796203613 4.53653144836425781 0.694687485694885254 119 77 0 250 6
3.17366814613342285 4.64597129821777344 0.768143713474273682 119 77 0 250 6
3.14699554443359375 4.61066818237304688 0.596875011920928955 119 77 0 250 6
3.18247842788696289 4.62442207336425781 0.556718707084655762 119 77 0 250 6
3.25735163688659668 4.65269088745117188 0.694062471389770508 119 77 0 250 6
3.18289089202880859 4.62686920166015625 0.73002779483795166 119 77 0 250 6
2.94064569473266602 4.54742193222045898 0.755345463752746582 119 77 0 250 6
2.99819278717041016 4.5630955696105957 0.744919836521148682 119 77 0 250 6
3.01399898529052734 4.57677936553955078 0.75652843713760376 119 77 0 250 6
3.43689441680908203 4.71916389465332031 0.631875038146972656 119 77 0 250 6
3.22863340377807617 4.64155769348144531 0.64296877384185791 119 77 0 250 6
3.07314705848693848 4.58317852020263672 0.598906278610229492 119 77 0 250 6
3.16088962554931641 4.61744070053100586 0.696815371513366699 119 77 0 250 6
3.3239288330078125 4.67729091644287109 0.600624978542327881 119 77 0 250 6
3.2738797664642334 4.662017822265625 0.741835534572601318 119 77 0 250 6
3.24149274826049805 4.65625476837158203 0.755364298820495605 119 77 0 250 6
3.32408690452575684 4.67845869064331055 0.727444171905517578 119 77 0 250 6
3.37229108810424805 4.70310640335083008 0.755682885646820068 119 77 0 250 6
3.3003690242767334 4.68858098983764648 0.765889346599578857 119 77 0 250 6
3.22983479499816895 4.6639094352722168 0.766667962074279785 119 77 0 250 6
3.49870657920837402 4.74214267730712891 0.701171875 119 77 0 250 6
3.45516777038574219 4.73171234130859375 0.75583946704864502 119 77 0 250 6
3.43215227127075195 4.71829319000244141 0.741486489772796631 119 77 0 250 6
3.46378421783447266 4.74362993240356445 0.766283571720123291 119 77 0 250 6
3.39355611801147461 4.70288753509521484 0.685781240463256836 119 77 0 250 6
3.38422799110412598 4.71676301956176758 0.764738261699676514 119 77 0 250 6
3.04367160797119141 4.57277107238769531 0.66171872615814209 119 77 0 250 6
3.04711151123046875 4.57506179809570312 0.710624992847442627 119 77 0 250 6
3.08827590942382812 4.60170936584472656 0.755538642406463623 119 77 0 250 6
3.12745809555053711 4.60617494583129883 0.731534600257873535 119 77 0 250 6
3.13628506660461426 4.61292505264282227 0.74484097957611084 119 77 0 250 6
4.01391839981079102 4.948516845703125 0.402373760938644409 119 77 0 250 6
4.00234699249267578 4.94064044952392578 0.469734162092208862 119 77 0 250 6
4.0157008171081543 4.95404672622680664 0.474252521991729736 119 77 0 250 6
3.97439050674438477 4.92138957977294922 0.463750004768371582 119 77 0 250 6
3.99279475212097168 4.93094491958618164 0.462935686111450195 119 77 0 250 6
3.81901693344116211 4.85829591751098633 0.325312495231628418 119 77 0 250 6
4.00127935409545898 4.93108415603637695 0.155821889638900757 119 77 0 250 6
4.01284694671630859 4.93524074554443359 0.170625001192092896 119 77 0 250 6
3.67995977401733398 4.80521202087402344 0.273750007152557373 119 77 0 250 6
3.64637088775634766 4.79374980926513672 0.308046877384185791 119 77 0 250 6
3.63122963905334473 4.78976154327392578 0.451875001192092896 119 77 0 250 6
3.81069827079772949 4.87668991088867188 0.0803219228982925415 119 77 0 250 6
3.52341842651367188 4.74646091461181641 0.190624997019767761 119 77 0 250 6
3.56243991851806641 4.76095008850097656 0.227499991655349731 119 77 0 250 6
3.55499982833862305 4.76086950302124023 0.305000007152557373 119 77 0 250 6
3.6354374885559082 4.79068183898925781 0.360781222581863403 119 77 0 250 6
4.00374269485473633 4.94489812850952148 0.5915871262550354 119 77 0 250 6
3.93846607208251953 4.9064021110534668 0.137972280383110046 119 77 0 250 6
3.94809126853942871 4.92962503433227539 0.0688149556517601013 119 77 0 250 6
3.57228469848632812 4.76783418655395508 0.461250007152557373 119 77 0 250 6
3.91734600067138672 4.8966217041015625 0.244999989867210388 119 77 0 250 6
3.96549797058105469 4.91499996185302734 0.204999998211860657 119 77 0 250 6
4.00489521026611328 4.93567848205566406 0.287937790155410767 119 77 0 250 6
3.89548826217651367 4.91186714172363281 0.0723480582237243652 119 77 0 250 6
3.98086023330688477 4.92220878601074219 0.316562503576278687 119 77 0 250 6
3.9986875057220459 4.93314599990844727 0.370573282241821289 119 77 0 250 6
3.88721466064453125 4.88651561737060547 0.454999983310699463 119 77 0 250 6
3.6280677318572998 4.80942392349243164 0.0642675980925559998 119 77 0 250 6
3.66037106513977051 4.81927967071533203 0.0619253478944301605 119 77 0 250 6
3.85396242141723633 4.87295913696289062 0.392812490463256836 119 77 0 250 6
3.85559773445129395 4.87273502349853516 0.288124978542327881 119 77 0 250 6
3.61343145370483398 4.77999973297119141 0.219531252980232239 119 77 0 250 6
3.59541606903076172 4.77297115325927734 0.165641054511070251 119 77 0 250 6
3.66522455215454102 4.79837465286254883 0.20750001072883606 119 77 0 250 6
3.78389239311218262 4.84458208084106445 0.150032773613929749 119 77 0 250 6
3.68995380401611328 4.80874252319335938 0.183750003576278687 119 77 0 250 6
3.6834874153137207 4.80568981170654297 0.148207992315292358 119 77 0 250 6
3.71003174781799316 4.83944606781005859 0.0664261355996131897 119 77 0 250 6
3.76418304443359375 4.85847806930541992 0.0801466554403305054 119 77 0 250 6
3.73029661178588867 4.82956981658935547 0.124716654419898987 119 77 0 250 6
3.49499988555908203 4.73662328720092773 0.155000001192092896 119 77 0 250 6
3.54551339149475098 4.75737810134887695 0.136768728494644165 119 77 0 250 6
3.58500003814697266 4.77900552749633789 0.11499999463558197 119 77 0 250 6
3.63261508941650391 4.78946828842163086 0.139066174626350403 119 77 0 250 6
3.73342704772949219 4.82817935943603516 0.454062491655349731 119 77 0 250 6
3.80122971534729004 4.85302543640136719 0.445625007152557373 119 77 0 250 6
3.80888581275939941 4.85320377349853516 0.19187501072883606 119 77 0 250 6
3.76870346069335938 4.83855152130126953 0.240781247615814209 119 77 0 250 6
3.73981142044067383 4.82839679718017578 0.312812507152557373 119 77 0 250 6
3.7041008472442627 4.81500005722045898 0.254999995231628418 119 77 0 250 6
3.92346000671386719 4.89938926696777344 0.390312492847442627 119 77 0 250 6
3.58069086074829102 4.79469490051269531 0.0669395104050636292 119 77 0 250 6
3.51805782318115234 4.77212810516357422 0.0682859346270561218 119 77 0 250 6
3.67980480194091797 4.82516050338745117 0.0820565149188041687 119 77 0 250 6
3.64950990676879883 4.80165767669677734 0.11499999463558197 119 77 0 250 6
4.02025985717773438 4.94053745269775391 0.297118037939071655 119 77 0 250 6
4.024993896484375 4.94767665863037109 0.362709343433380127 119 77 0 250 6
3.82329869270324707 4.86637973785400391 0.122745305299758911 119 77 0 250 6
3.81076717376708984 4.85571527481079102 0.271874994039535522 119 77 0 250 6
3.8475956916809082 4.86887264251708984 0.16121324896812439 119 77 0 250 6
4.00547933578491211 4.93494176864624023 0.124117977917194366 119 77 0 250 6
3.76004958152770996 4.85773897171020508 0.0640969425439834595 119 77 0 250 6
3.82054495811462402 4.88048076629638672 0.063477732241153717 119 77 0 250 6
3.57175302505493164 4.76708316802978516 0.373750001192092896 119 77 0 250 6
3.88343024253845215 4.89046573638916016 0.118928149342536926 119 77 0 250 6
3.86446499824523926 4.90085983276367188 0.0649889111518859863 119 77 0 250 6
3.84309506416320801 4.8694911003112793 0.140292927622795105 119 77 0 250 6
3.71609354019165039 4.82080936431884766 0.402187496423721313 119 77 0 250 6
3.88133788108825684 4.88356399536132812 0.556562542915344238 119 77 0 250 6
3.98512649536132812 4.92470979690551758 0.407499969005584717 119 77 0 250 6
3.99571514129638672 4.93426609039306641 0.558858811855316162 119 77 0 250 6
3.53499984741210938 4.75573205947875977 0.564999997615814209 119 77 0 250 6
3.51382780075073242 4.74741888046264648 0.628398418426513672 119 77 0 250 6
3.65917348861694336 4.80132865905761719 0.719999969005584717 119 77 0 250 6
3.61581587791442871 4.78807401657104492 0.74470221996307373 119 77 0 250 6
3.72257375717163086 4.82705974578857422 0.751811981201171875 119 77 0 250 6
3.65448760986328125 4.80922889709472656 0.765624582767486572 119 77 0 250 6
4.00215291976928711 4.95495462417602539 0.688954770565032959 119 77 0 250 6
3.58046674728393555 4.77808094024658203 0.755051851272583008 119 77 0 250 6
3.57556462287902832 4.78269052505493164 0.76530766487121582 119 77 0 250 6
3.7649998664855957 4.83977127075195312 0.694999992847442627 119 77 0 250 6
3.77562475204467773 4.84617424011230469 0.745000004768371582 119 77 0 250 6
3.76685953140258789 4.85028219223022461 0.76577293872833252 119 77 0 250 6
3.55493068695068359 4.76429080963134766 0.733749985694885254 119 77 0 250 6
3.67245626449584961 4.80565023422241211 0.663593709468841553 119 77 0 250 6
4.01453113555908203 4.95488595962524414 0.576249957084655762 119 77 0 250 6
3.70906257629394531 4.81973028182983398 0.599687457084655762 119 77 0 250 6
3.6126561164855957 4.78409671783447266 0.542500019073486328 119 77 0 250 6
3.6556248664855957 4.8003697395324707 0.611249983310699463 119 77 0 250 6
3.98046398162841797 4.92436361312866211 0.56484377384185791 119 77 0 250 6
3.9417731761932373 4.90733861923217773 0.625937461853027344 119 77 0 250 6
3.98237800598144531 4.9262237548828125 0.656727075576782227 119 77 0 250 6
3.96253061294555664 4.91503000259399414 0.750258803367614746 119 77 0 250 6
3.98421287536621094 4.92752790451049805 0.751650452613830566 119 77 0 250 6
3.98233747482299805 4.93418216705322266 0.767772138118743896 119 77 0 250 6
3.8460686206817627 4.87424325942993164 0.754960775375366211 119 77 0 250 6
3.86946225166320801 4.87943172454833984 0.616249978542327881 119 77 0 250 6
3.79317760467529297 4.85037517547607422 0.570624947547912598 119 77 0 250 6
3.74624991416931152 4.833251953125 0.653750002384185791 119 77 0 250 6
3.81874966621398926 4.86042594909667969 0.701249957084655762 119 77 0 250 6
4.00093317031860352 4.95842790603637695 0.74962383508682251 119 77 0 250 6
3.87288665771484375 4.88227748870849609 0.740937471389770508 119 77 0 250 6
3.85479927062988281 4.88179540634155273 0.766670465469360352 119 77 0 250 6
3.9452049732208252 4.91322708129882812 0.765659928321838379 119 77 0 250 6
3.70848917961120605 4.81895256042480469 0.532968759536743164 119 77 0 250 6
3.59531259536743164 4.77765369415283203 0.68593752384185791 119 77 0 250 6
3.86244964599609375 4.87704229354858398 0.704062461853027344 119 77 0 250 6
3.96465134620666504 4.9146270751953125 0.709898293018341064 119 77 0 250 6
3.99077796936035156 4.93487071990966797 0.672628521919250488 119 77 0 250 6
2.7315218448638916 4.50595426559448242 0.767298042774200439 119 77 0 250 6
2.72425389289855957 4.54406404495239258 0.757728695869445801 119 77 0 250 6
2.82564616203308105 4.52004337310791016 0.767145514488220215 119 77 0 250 6
2.65813064575195312 4.54183673858642578 0.737744331359863281 119 77 0 250 6
2.67934370040893555 4.55254268646240234 0.747026145458221436 119 77 0 250 6
2.7898399829864502 4.53709220886230469 0.766878366470336914 119 77 0 250 6
2.77671241760253906 4.56547021865844727 0.761101782321929932 119 77 0 250 6
2.8710331916809082 4.5598139762878418 0.767145454883575439 119 77 0 250 6
2.89643645286560059 4.54543733596801758 0.765614569187164307 119 77 0 250 6
2.86510348320007324 4.61664295196533203 0.757362306118011475 119 77 0 250 6
3.41313862800598145 4.81460332870483398 0.760641932487487793 119 77 0 250 6
3.49194979667663574 4.83386564254760742 0.764652907848358154 119 77 0 250 6
3.07102704048156738 4.67553949356079102 0.759886085987091064 119 77 0 250 6
3.13323760032653809 4.66585636138916016 0.766797900199890137 119 77 0 250 6
2.93980860710144043 4.62099170684814453 0.759505391120910645 119 77 0 250 6
2.96014022827148438 4.58999872207641602 0.766662299633026123 119 77 0 250 6
3.00838589668273926 4.65569496154785156 0.757969915866851807 119 77 0 250 6
2.72160077095031738 4.56575870513916016 0.758456707000732422 119 77 0 250 6
3.21980404853820801 4.77396202087402344 0.728051364421844482 119 77 0 250 6
3.2388005256652832 4.72541189193725586 0.758925080299377441 119 77 0 250 6
3.25447773933410645 4.75345039367675781 0.751379728317260742 119 77 0 250 6
3.28801441192626953 4.77882719039916992 0.748206198215484619 119 77 0 250 6
3.27503180503845215 4.74032878875732422 0.759589731693267822 119 77 0 250 6
3.36201119422912598 4.72506284713745117 0.771296381950378418 119 77 0 250 6
