ply
format ascii 1.0
element vertex 257
property float x
property float y
property float z
property uchar red
property uchar green
property uchar blue
property uchar alpha
property uint label
end_header
4.54380416870117188 7.44058322906494141 0.331069409847259521 255 0 246 218 38
4.68293952941894531 7.48616361618041992 0.262947827577590942 255 0 246 218 38
4.66421937942504883 7.44787025451660156 0.244534388184547424 255 0 246 218 38
4.67207479476928711 7.46281290054321289 0.250035375356674194 255 0 246 218 38
4.6374516487121582 7.46099948883056641 0.290921241044998169 255 0 246 218 38
4.68654489517211914 7.4691004753112793 0.2786446213722229 255 0 246 218 38
4.66506576538085938 7.43843984603881836 0.321851551532745361 255 0 246 218 38
4.68369817733764648 7.42602682113647461 0.266315162181854248 255 0 246 218 38
4.76527786254882812 7.27347850799560547 0.274931937456130981 255 0 246 218 38
4.76826286315917969 7.26016998291015625 0.314227581024169922 255 0 246 218 38
4.77984333038330078 7.22509622573852539 0.258413046598434448 255 0 246 218 38
4.78196859359741211 7.23452329635620117 0.299171477556228638 255 0 246 218 38
4.78435611724853516 7.24494409561157227 0.246400803327560425 255 0 246 218 38
4.71141672134399414 7.37368917465209961 0.298573344945907593 255 0 246 218 38
4.66325283050537109 7.31317472457885742 0.363575637340545654 255 0 246 218 38
4.64812564849853516 7.3248133659362793 0.393394827842712402 255 0 246 218 38
4.69427824020385742 7.33613157272338867 0.329399734735488892 255 0 246 218 38
4.67071151733398438 7.32672691345214844 0.367524951696395874 255 0 246 218 38
4.6852569580078125 7.35516643524169922 0.399948775768280029 255 0 246 218 38
4.70163583755493164 7.35557746887207031 0.357069939374923706 255 0 246 218 38
4.73217105865478516 7.29047012329101562 0.427911907434463501 255 0 246 218 38
4.74684238433837891 7.2624211311340332 0.474567413330078125 255 0 246 218 38
4.60529375076293945 7.16889429092407227 0.330404549837112427 255 0 246 218 38
4.61812067031860352 7.21058130264282227 0.323624849319458008 255 0 246 218 38
4.6348724365234375 7.18381500244140625 0.334182709455490112 255 0 246 218 38
4.57796382904052734 7.18362283706665039 0.314676821231842041 255 0 246 218 38
4.59500598907470703 7.1896977424621582 0.317827790975570679 255 0 246 218 38
4.5772700309753418 7.14397621154785156 0.337606638669967651 255 0 246 218 38
4.62332439422607422 7.43729734420776367 0.345271795988082886 255 0 246 218 38
4.56522369384765625 7.42954874038696289 0.330687224864959717 255 0 246 218 38
4.59166049957275391 7.42689895629882812 0.332021027803421021 255 0 246 218 38
4.55017185211181641 7.47100543975830078 0.286920815706253052 255 0 246 218 38
4.62303066253662109 7.46926736831665039 0.309276849031448364 255 0 246 218 38
4.57098484039306641 7.45580577850341797 0.301631927490234375 255 0 246 218 38
4.57876300811767578 7.47652721405029297 0.287149250507354736 255 0 246 218 38
4.55697488784790039 7.49689149856567383 0.283717542886734009 255 0 246 218 38
4.59675884246826172 7.49544620513916016 0.29072105884552002 255 0 246 218 38
4.63655233383178711 7.43456220626831055 0.370147794485092163 255 0 246 218 38
4.59511804580688477 7.43167924880981445 0.342909425497055054 255 0 246 218 38
4.5999755859375 7.46456527709960938 0.35143733024597168 255 0 246 218 38
4.561981201171875 7.44353389739990234 0.329702854156494141 255 0 246 218 38
4.55149269104003906 7.45112514495849609 0.311795651912689209 255 0 246 218 38
4.60539674758911133 7.46607160568237305 0.308496087789535522 255 0 246 218 38
4.58652162551879883 7.46372175216674805 0.330453723669052124 255 0 246 218 38
4.59823751449584961 7.46442174911499023 0.378287911415100098 255 0 246 218 38
4.55620908737182617 7.47489070892333984 0.309517204761505127 255 0 246 218 38
4.64666891098022461 7.32384634017944336 0.446738451719284058 255 0 246 218 38
4.64774179458618164 7.34868001937866211 0.454074770212173462 255 0 246 218 38
4.66970109939575195 7.33603382110595703 0.408469527959823608 255 0 246 218 38
4.67076015472412109 7.33913230895996094 0.438037306070327759 255 0 246 218 38
4.69586992263793945 7.34878015518188477 0.389835089445114136 255 0 246 218 38
4.73428535461425781 7.23634529113769531 0.458729684352874756 255 0 246 218 38
4.72942543029785156 7.26517105102539062 0.547718822956085205 255 0 246 218 38
4.74397706985473633 7.25897359848022461 0.501699507236480713 255 0 246 218 38
4.71939992904663086 7.22178459167480469 0.500703692436218262 255 0 246 218 38
4.71393728256225586 7.22504425048828125 0.536473870277404785 255 0 246 218 38
4.71214485168457031 7.23409032821655273 0.553481996059417725 255 0 246 218 38
4.6811065673828125 7.48823022842407227 0.199052110314369202 255 0 246 218 38
4.649169921875 7.48395156860351562 0.21991264820098877 255 0 246 218 38
4.68787288665771484 7.35531330108642578 0.515201032161712646 255 0 246 218 38
4.68242263793945312 7.23040294647216797 0.545318067073822021 255 0 246 218 38
4.69138717651367188 7.24453496932983398 0.525516688823699951 255 0 246 218 38
4.6948699951171875 7.24229764938354492 0.467554539442062378 255 0 246 218 38
4.64571332931518555 7.43917369842529297 0.342170387506484985 255 0 246 218 38
4.68627309799194336 7.46902799606323242 0.311158239841461182 255 0 246 218 38
4.65019750595092773 7.44936656951904297 0.353772252798080444 255 0 246 218 38
4.67431211471557617 7.46882152557373047 0.362950772047042847 255 0 246 218 38
4.66802310943603516 7.47082281112670898 0.395861774682998657 255 0 246 218 38
4.65566730499267578 7.4506983757019043 0.5257912278175354 255 0 246 218 38
4.64517021179199219 7.4749445915222168 0.518926143646240234 255 0 246 218 38
4.65931606292724609 7.45404243469238281 0.490806400775909424 255 0 246 218 38
4.58948087692260742 7.23501729965209961 0.304874509572982788 255 0 246 218 38
4.66551351547241211 7.40877246856689453 0.514914035797119141 255 0 246 218 38
4.68340301513671875 7.36002063751220703 0.466389715671539307 255 0 246 218 38
4.66184425354003906 7.39356470108032227 0.461485445499420166 255 0 246 218 38
4.63496065139770508 7.42490673065185547 0.555486202239990234 255 0 246 218 38
4.76431846618652344 7.2855830192565918 0.214985698461532593 255 0 246 218 38
4.78579235076904297 7.23186635971069336 0.212699070572853088 255 0 246 218 38
4.77340030670166016 7.27251052856445312 0.191766828298568726 255 0 246 218 38
4.78439474105834961 7.24637365341186523 0.201321303844451904 255 0 246 218 38
4.72915744781494141 7.29912328720092773 0.466143041849136353 255 0 246 218 38
4.71434259414672852 7.30821037292480469 0.514424622058868408 255 0 246 218 38
4.69499063491821289 7.24636173248291016 0.418902665376663208 255 0 246 218 38
4.68575000762939453 7.25656414031982422 0.44681975245475769 255 0 246 218 38
4.71189737319946289 7.23459959030151367 0.454743772745132446 255 0 246 218 38
4.65495109558105469 7.36049127578735352 0.247862398624420166 255 0 246 218 38
4.65566444396972656 7.39862298965454102 0.236863180994987488 255 0 246 218 38
4.64245510101318359 7.41653537750244141 0.24264603853225708 255 0 246 218 38
4.67444658279418945 7.42105293273925781 0.316936492919921875 255 0 246 218 38
4.68511295318603516 7.43905067443847656 0.298071146011352539 255 0 246 218 38
4.69897603988647461 7.39663839340209961 0.278690814971923828 255 0 246 218 38
4.65533113479614258 7.38169431686401367 0.258462995290756226 255 0 246 218 38
4.70407772064208984 7.38550806045532227 0.313996493816375732 255 0 246 218 38
4.66321945190429688 7.45632314682006836 0.441625863313674927 255 0 246 218 38
4.6520233154296875 7.49340295791625977 0.438754439353942871 255 0 246 218 38
4.64954328536987305 7.47590160369873047 0.475530326366424561 255 0 246 218 38
4.66193962097167969 7.46385431289672852 0.45432734489440918 255 0 246 218 38
4.66032600402832031 7.44335699081420898 0.400533467531204224 255 0 246 218 38
4.64808130264282227 7.44133758544921875 0.452202498912811279 255 0 246 218 38
4.66425895690917969 7.18912410736083984 0.337908446788787842 255 0 246 218 38
4.6723637580871582 7.31773805618286133 0.320708632469177246 255 0 246 218 38
4.65508365631103516 7.32331418991088867 0.29627150297164917 255 0 246 218 38
4.67213821411132812 7.32982444763183594 0.259768456220626831 255 0 246 218 38
4.67689132690429688 7.32379579544067383 0.27661934494972229 255 0 246 218 38
4.68794107437133789 7.35911417007446289 0.297397077083587646 255 0 246 218 38
4.66589593887329102 7.23641490936279297 0.32970350980758667 255 0 246 218 38
4.7092137336730957 7.2445068359375 0.386024445295333862 255 0 246 218 38
4.6821284294128418 7.21690607070922852 0.338091850280761719 255 0 246 218 38
4.71200084686279297 7.20897769927978516 0.340649873018264771 255 0 246 218 38
4.64457893371582031 7.21428155899047852 0.333887368440628052 255 0 246 218 38
4.69865894317626953 7.23768043518066406 0.339882820844650269 255 0 246 218 38
4.74796295166015625 7.24124574661254883 0.442394882440567017 255 0 246 218 38
4.72340250015258789 7.2247166633605957 0.425732433795928955 255 0 246 218 38
4.74651861190795898 7.24370670318603516 0.477796852588653564 255 0 246 218 38
4.74883413314819336 7.25804948806762695 0.435241967439651489 255 0 246 218 38
4.68862533569335938 7.41782999038696289 0.311541736125946045 255 0 246 218 38
4.70215654373168945 7.36411333084106445 0.334562450647354126 255 0 246 218 38
4.71451425552368164 7.36374998092651367 0.327675193548202515 255 0 246 218 38
4.68862152099609375 7.39777755737304688 0.32022896409034729 255 0 246 218 38
4.69093847274780273 7.3777775764465332 0.316852420568466187 255 0 246 218 38
4.73893499374389648 7.31151056289672852 0.361303597688674927 255 0 246 218 38
4.74805831909179688 7.30544424057006836 0.31396174430847168 255 0 246 218 38
4.74667501449584961 7.29172754287719727 0.388728171586990356 255 0 246 218 38
4.65624713897705078 7.42040681838989258 0.410445064306259155 255 0 246 218 38
4.6761326789855957 7.3759760856628418 0.482660889625549316 255 0 246 218 38
4.64829206466674805 7.4183807373046875 0.44691765308380127 255 0 246 218 38
4.6394801139831543 7.37022542953491211 0.457614123821258545 255 0 246 218 38
4.67085981369018555 7.35602712631225586 0.465172618627548218 255 0 246 218 38
4.63233041763305664 7.43241786956787109 0.422148644924163818 255 0 246 218 38
4.60615873336791992 7.44538688659667969 0.414312303066253662 255 0 246 218 38
4.74427127838134766 7.22261238098144531 0.389944791793823242 255 0 246 218 38
4.75938940048217773 7.23417758941650391 0.387861132621765137 255 0 246 218 38
4.73662471771240234 7.22146272659301758 0.370081961154937744 255 0 246 218 38
4.76638603210449219 7.2516026496887207 0.345197439193725586 255 0 246 218 38
4.71262168884277344 7.23800086975097656 0.356433749198913574 255 0 246 218 38
4.76672220230102539 7.24725914001464844 0.3811664879322052 255 0 246 218 38
4.75532436370849609 7.2811427116394043 0.358622312545776367 255 0 246 218 38
4.76308250427246094 7.23230266571044922 0.346974849700927734 255 0 246 218 38
4.73069381713867188 7.33780145645141602 0.31311991810798645 255 0 246 218 38
4.75286531448364258 7.28997278213500977 0.293882697820663452 255 0 246 218 38
4.69503259658813477 7.2641749382019043 0.805539727210998535 255 0 246 218 38
4.63456153869628906 7.38209342956542969 0.728790223598480225 255 0 246 218 38
4.64891147613525391 7.27444887161254883 0.608327090740203857 255 0 246 218 38
4.69436264038085938 7.30908393859863281 0.603428840637207031 255 0 246 218 38
4.7005457878112793 7.31118679046630859 0.578328192234039307 255 0 246 218 38
4.68187808990478516 7.34897756576538086 0.55752265453338623 255 0 246 218 38
4.68326997756958008 7.3274073600769043 0.604014039039611816 255 0 246 218 38
4.64740467071533203 7.44866275787353516 0.549100160598754883 255 0 246 218 38
4.63360977172851562 7.46687841415405273 0.585771679878234863 255 0 246 218 38
4.62391090393066406 7.29414701461791992 0.685959041118621826 255 0 246 218 38
4.69576549530029297 7.26576709747314453 0.722794294357299805 255 0 246 218 38
4.662200927734375 7.23355770111083984 0.768821120262145996 255 0 246 218 38
4.66918039321899414 7.20268583297729492 0.795837163925170898 255 0 246 218 38
4.65104532241821289 7.25246381759643555 0.744994938373565674 255 0 246 218 38
4.66515159606933594 7.25237035751342773 0.756124913692474365 255 0 246 218 38
4.69646024703979492 7.26003503799438477 0.793792545795440674 255 0 246 218 38
4.68325996398925781 7.2405400276184082 0.640942513942718506 255 0 246 218 38
4.63666534423828125 7.27423715591430664 0.652507424354553223 255 0 246 218 38
4.66974210739135742 7.24362564086914062 0.72233814001083374 255 0 246 218 38
4.66344165802001953 7.24579381942749023 0.701795756816864014 255 0 246 218 38
4.63689231872558594 7.27307939529418945 0.687169134616851807 255 0 246 218 38
4.67356157302856445 7.23682641983032227 0.67546612024307251 255 0 246 218 38
4.69035577774047852 7.24839305877685547 0.689787089824676514 255 0 246 218 38
4.70081472396850586 7.2548370361328125 0.652439713478088379 255 0 246 218 38
4.64719820022583008 7.39694643020629883 0.555305063724517822 255 0 246 218 38
4.67761039733886719 7.37416934967041016 0.529262006282806396 255 0 246 218 38
4.63353681564331055 7.39873743057250977 0.674625694751739502 255 0 246 218 38
4.62752962112426758 7.41174411773681641 0.725893080234527588 255 0 246 218 38
4.66721439361572266 7.34710979461669922 0.654814302921295166 255 0 246 218 38
4.70581960678100586 7.27209806442260742 0.669899702072143555 255 0 246 218 38
4.68888950347900391 7.31762456893920898 0.636100292205810547 255 0 246 218 38
4.67582559585571289 7.33166122436523438 0.659307181835174561 255 0 246 218 38
4.66357040405273438 7.34450054168701172 0.679719388484954834 255 0 246 218 38
4.71190118789672852 7.27203607559204102 0.614472508430480957 255 0 246 218 38
4.63096237182617188 7.47838449478149414 0.557051718235015869 255 0 246 218 38
4.63076877593994141 7.42756462097167969 0.731630504131317139 255 0 246 218 38
4.65197324752807617 7.38379335403442383 0.613331019878387451 255 0 246 218 38
4.6309514045715332 7.41470479965209961 0.663637220859527588 255 0 246 218 38
4.68646907806396484 7.2691035270690918 0.764990866184234619 255 0 246 218 38
4.68525362014770508 7.28286457061767578 0.753237903118133545 255 0 246 218 38
4.66270351409912109 7.32669448852539062 0.752324938774108887 255 0 246 218 38
4.69643640518188477 7.29729032516479492 0.795028388500213623 255 0 246 218 38
4.70216226577758789 7.33920145034790039 0.795778810977935791 255 0 246 218 38
4.685638427734375 7.30497550964355469 0.692115426063537598 255 0 246 218 38
4.65262651443481445 7.36421012878417969 0.755663514137268066 255 0 246 218 38
4.70319461822509766 7.2283935546875 0.586045145988464355 255 0 246 218 38
4.68814277648925781 7.24241876602172852 0.616477251052856445 255 0 246 218 38
4.66740989685058594 7.26116657257080078 0.579246640205383301 255 0 246 218 38
4.68463039398193359 7.22466278076171875 0.558484315872192383 255 0 246 218 38
4.71064233779907227 7.25153207778930664 0.61451876163482666 255 0 246 218 38
4.6826176643371582 7.36377334594726562 0.777654290199279785 255 0 246 218 38
4.64906883239746094 7.4015812873840332 0.751768946647644043 255 0 246 218 38
4.73468446731567383 7.24446868896484375 0.527366936206817627 255 0 246 218 38
4.72255086898803711 7.26269865036010742 0.586940288543701172 255 0 246 218 38
4.63108539581298828 7.47091817855834961 0.637243747711181641 255 0 246 218 38
4.6200261116027832 7.46834707260131836 0.677466690540313721 255 0 246 218 38
4.63676548004150391 7.43042850494384766 0.699632465839385986 255 0 246 218 38
4.6191411018371582 7.4627537727355957 0.708894073963165283 255 0 246 218 38
4.70609521865844727 7.34662151336669922 0.806479215621948242 255 0 246 218 38
4.69578647613525391 7.37387800216674805 0.798832714557647705 255 0 246 218 38
4.71351003646850586 7.29952573776245117 0.556438148021697998 255 0 246 218 38
4.63607597351074219 7.43570661544799805 0.669728219509124756 255 0 246 218 38
4.63150453567504883 7.2747797966003418 0.738312602043151855 255 0 246 218 38
4.65767383575439453 7.3693537712097168 0.592002213001251221 255 0 246 218 38
4.64729595184326172 7.43326044082641602 0.614626407623291016 255 0 246 218 38
4.64107227325439453 7.41246271133422852 0.604789316654205322 255 0 246 218 38
4.67476081848144531 7.50413179397583008 0.273478537797927856 255 0 246 218 38
4.62593555450439453 7.60295629501342773 0.166742652654647827 255 0 246 218 38
4.61452245712280273 7.63373422622680664 0.146064043045043945 255 0 246 218 38
4.65498208999633789 7.51110076904296875 0.348801672458648682 255 0 246 218 38
4.64337253570556641 7.51822471618652344 0.386531740427017212 255 0 246 218 38
4.64788103103637695 7.50769424438476562 0.41573294997215271 255 0 246 218 38
4.66942739486694336 7.52508449554443359 0.204947426915168762 255 0 246 218 38
4.65057182312011719 7.59630155563354492 0.137093067169189453 255 0 246 218 38
4.6826176643371582 7.50853490829467773 0.16918317973613739 255 0 246 218 38
4.66023731231689453 7.54363489151000977 0.196863085031509399 255 0 246 218 38
4.6676936149597168 7.5221409797668457 0.243110999464988708 255 0 246 218 38
4.69143867492675781 7.53341436386108398 0.131842032074928284 255 0 246 218 38
4.65882253646850586 7.56193208694458008 0.163223102688789368 255 0 246 218 38
4.42334079742431641 7.30616378784179688 0.810507655143737793 255 0 246 218 38
4.45055294036865234 7.30714845657348633 0.817125082015991211 255 0 246 218 38
4.49193239212036133 7.35609912872314453 0.817913532257080078 255 0 246 218 38
4.50249958038330078 7.30999946594238281 0.815790057182312012 255 0 246 218 38
4.53338813781738281 7.38738155364990234 0.815580189228057861 255 0 246 218 38
4.45376920700073242 7.23619604110717773 0.815680146217346191 255 0 246 218 38
4.46699428558349609 7.39167881011962891 0.815962076187133789 255 0 246 218 38
4.46259117126464844 7.42597246170043945 0.809993267059326172 255 0 246 218 38
4.51367092132568359 7.41844558715820312 0.815012276172637939 255 0 246 218 38
4.46848487854003906 7.20619726181030273 0.814552605152130127 255 0 246 218 38
4.45122671127319336 7.20547246932983398 0.805103421211242676 255 0 246 218 38
4.43229055404663086 7.26144313812255859 0.811436831951141357 255 0 246 218 38
4.48585319519042969 7.17621135711669922 0.807027995586395264 255 0 246 218 38
4.48564767837524414 7.44428777694702148 0.808400869369506836 255 0 246 218 38
4.50490283966064453 7.46718406677246094 0.812094211578369141 255 0 246 218 38
4.54606437683105469 7.46843624114990234 0.810173571109771729 255 0 246 218 38
4.49210405349731445 7.2186274528503418 0.81306833028793335 255 0 246 218 38
4.43794822692871094 7.36200046539306641 0.811569631099700928 255 0 246 218 38
4.44716644287109375 7.40517568588256836 0.810515761375427246 255 0 246 218 38
4.63973617553710938 7.31222438812255859 0.813920557498931885 255 0 246 218 38
4.65381240844726562 7.40190982818603516 0.816008388996124268 255 0 246 218 38
4.65273618698120117 7.2507634162902832 0.810699760913848877 255 0 246 218 38
4.66404962539672852 7.20751428604125977 0.804743766784667969 255 0 246 218 38
4.67787313461303711 7.26905250549316406 0.810580193996429443 255 0 246 218 38
4.62444305419921875 7.18580245971679688 0.805141031742095947 255 0 246 218 38
4.54415416717529297 7.42200994491577148 0.819805681705474854 255 0 246 218 38
4.53663253784179688 7.17263889312744141 0.80752485990524292 255 0 246 218 38
4.58092117309570312 7.17054224014282227 0.806547462940216064 255 0 246 218 38
4.56645536422729492 7.42665529251098633 0.816258788108825684 255 0 246 218 38
4.59547090530395508 7.42696332931518555 0.818329870700836182 255 0 246 218 38
4.58785152435302734 7.38316917419433594 0.817039668560028076 255 0 246 218 38
4.61081314086914062 7.46370935440063477 0.808675467967987061 255 0 246 218 38
4.59484386444091797 7.2617182731628418 0.81259620189666748 255 0 246 218 38
4.61266231536865234 7.20789813995361328 0.811288654804229736 255 0 246 218 38
4.67444467544555664 7.4089360237121582 0.806558489799499512 255 0 246 218 38
4.64006471633911133 7.43434667587280273 0.812017619609832764 255 0 246 218 38
4.54059600830078125 7.30057716369628906 0.813376069068908691 255 0 246 218 38
4.57501316070556641 7.33994483947753906 0.812566280364990234 255 0 246 218 38
