ply
format ascii 1.0
element vertex 177
property float x
property float y
property float z
property uchar red
property uchar green
property uchar blue
property uchar alpha
property uint label
end_header
2.0656585693359375 1.26220643520355225 0.49524235725402832 122 71 130 252 4
1.71778380870819092 1.12545168399810791 0.502695798873901367 122 71 130 252 4
1.73041415214538574 1.11784148216247559 0.499389290809631348 122 71 130 252 4
1.7386176586151123 1.15289986133575439 0.501702010631561279 122 71 130 252 4
1.94413983821868896 1.14936816692352295 0.495677858591079712 122 71 130 252 4
1.91796219348907471 1.19332373142242432 0.497193902730941772 122 71 130 252 4
1.93001866340637207 1.11453402042388916 0.501461029052734375 122 71 130 252 4
2.00563383102416992 1.14804935455322266 0.495671242475509644 122 71 130 252 4
2.15199494361877441 1.26715302467346191 0.497016876935958862 122 71 130 252 4
2.16421341896057129 1.2174452543258667 0.49658474326133728 122 71 130 252 4
2.09919905662536621 1.19473528861999512 0.494408905506134033 122 71 130 252 4
1.90221202373504639 1.1043696403503418 0.523208022117614746 122 71 130 252 4
1.88448727130889893 1.09144234657287598 0.532738804817199707 122 71 130 252 4
1.8608323335647583 1.21101987361907959 0.504043996334075928 122 71 130 252 4
1.88446319103240967 1.22647571563720703 0.498117655515670776 122 71 130 252 4
2.05404472351074219 1.32529878616333008 0.496015429496765137 122 71 130 252 4
2.12876319885253906 1.32402753829956055 0.496241390705108643 122 71 130 252 4
2.10915136337280273 1.38235867023468018 0.496070742607116699 122 71 130 252 4
2.08671474456787109 1.43507027626037598 0.495061427354812622 122 71 130 252 4
1.83688259124755859 1.40819644927978516 0.497239589691162109 122 71 130 252 4
1.80904483795166016 1.44068098068237305 0.498003214597702026 122 71 130 252 4
1.79118609428405762 1.15956676006317139 0.524843692779541016 122 71 130 252 4
1.76549673080444336 1.16940164566040039 0.505067408084869385 122 71 130 252 4
1.79502439498901367 1.18887829780578613 0.509798943996429443 122 71 130 252 4
1.77040684223175049 1.19932019710540771 0.503207623958587646 122 71 130 252 4
1.81808185577392578 1.14908146858215332 0.533026158809661865 122 71 130 252 4
1.92335808277130127 1.26758432388305664 0.494360864162445068 122 71 130 252 4
2.00231480598449707 1.28644716739654541 0.495584785938262939 122 71 130 252 4
1.93869531154632568 1.31731283664703369 0.494852304458618164 122 71 130 252 4
2.02324295043945312 1.38345217704772949 0.497172296047210693 122 71 130 252 4
2.04543948173522949 1.45870471000671387 0.498054087162017822 122 71 130 252 4
2.0655364990234375 1.50666320323944092 0.496542096138000488 122 71 130 252 4
1.82327985763549805 1.32488608360290527 0.494342505931854248 122 71 130 252 4
1.89217472076416016 1.35150659084320068 0.495955228805541992 122 71 130 252 4
1.85167133808135986 1.29151022434234619 0.495622426271438599 122 71 130 252 4
2.06478309631347656 1.16508603096008301 0.495553761720657349 122 71 130 252 4
1.96997237205505371 1.40757691860198975 0.499380379915237427 122 71 130 252 4
1.82176494598388672 1.23043358325958252 0.502258896827697754 122 71 130 252 4
1.77147555351257324 1.33849692344665527 0.498602390289306641 122 71 130 252 4
1.71052050590515137 1.09315478801727295 0.501756668090820312 122 71 130 252 4
1.72152197360992432 1.04306817054748535 0.512064039707183838 122 71 130 252 4
1.73334908485412598 1.07764840126037598 0.509725391864776611 122 71 130 252 4
1.91071486473083496 1.12930536270141602 0.505013227462768555 122 71 130 252 4
1.86755621433258057 1.16097533702850342 0.53641963005065918 122 71 130 252 4
1.9017714262008667 1.17941844463348389 0.503933072090148926 122 71 130 252 4
1.88616383075714111 1.17371082305908203 0.529658079147338867 122 71 130 252 4
1.85253632068634033 1.18304169178009033 0.526886343955993652 122 71 130 252 4
1.90085124969482422 1.52033853530883789 0.499669879674911499 122 71 130 252 4
1.99681782722473145 1.21658086776733398 0.494926422834396362 122 71 130 252 4
1.94201552867889404 1.24161708354949951 0.495572477579116821 122 71 130 252 4
1.79313337802886963 1.07470214366912842 0.533365786075592041 122 71 130 252 4
1.85409355163574219 1.08723604679107666 0.536039471626281738 122 71 130 252 4
1.78729844093322754 1.23842108249664307 0.500367820262908936 122 71 130 252 4
1.78900814056396484 1.29263556003570557 0.501987993717193604 122 71 130 252 4
1.79999995231628418 1.36812496185302734 0.496804386377334595 122 71 130 252 4
2.04471731185913086 1.38045716285705566 0.497825741767883301 122 71 130 252 4
1.9823232889175415 1.34934580326080322 0.498329967260360718 122 71 130 252 4
1.92989015579223633 1.43733417987823486 0.502939224243164062 122 71 130 252 4
1.86937499046325684 1.72187495231628418 0.497247844934463501 122 71 130 252 4
2.01964950561523438 1.64798927307128906 0.497018426656723022 122 71 130 252 4
1.95182466506958008 1.80826461315155029 0.495707005262374878 122 71 130 252 4
1.85249996185302734 1.50499999523162842 0.499175071716308594 122 71 130 252 4
2.00077486038208008 1.70609283447265625 0.495973348617553711 122 71 130 252 4
1.9939035177230835 1.6896355152130127 0.500488519668579102 122 71 130 252 4
1.9184720516204834 1.70394575595855713 0.499296039342880249 122 71 130 252 4
1.96144723892211914 1.74701762199401855 0.497799575328826904 122 71 130 252 4
1.79184317588806152 1.69973981380462646 0.496097028255462646 122 71 130 252 4
1.9537498950958252 1.51250004768371582 0.501230239868164062 122 71 130 252 4
1.92430877685546875 1.58824419975280762 0.501162827014923096 122 71 130 252 4
1.96598565578460693 1.64328896999359131 0.501162528991699219 122 71 130 252 4
1.98000001907348633 1.59249997138977051 0.501366019248962402 122 71 130 252 4
1.8853830099105835 1.58735549449920654 0.502158701419830322 122 71 130 252 4
1.80999994277954102 1.58499991893768311 0.498283028602600098 122 71 130 252 4
1.88126754760742188 1.63471746444702148 0.50132286548614502 122 71 130 252 4
1.78749990463256836 1.64750003814697266 0.498031020164489746 122 71 130 252 4
2.04368829727172852 1.59015572071075439 0.49568706750869751 122 71 130 252 4
2.00438094139099121 1.47347927093505859 0.49701043963432312 122 71 130 252 4
2.03811168670654297 1.56806814670562744 0.499728381633758545 122 71 130 252 4
1.48499441146850586 1.91987478733062744 0.493846625089645386 122 71 130 252 4
1.44514524936676025 1.92504370212554932 0.500909864902496338 122 71 130 252 4
1.48912310600280762 1.84291565418243408 0.495949059724807739 122 71 130 252 4
1.47352766990661621 1.75598061084747314 0.493432730436325073 122 71 130 252 4
1.48843681812286377 1.75244760513305664 0.494821310043334961 122 71 130 252 4
1.49141621589660645 1.73084962368011475 0.519832074642181396 122 71 130 252 4
1.46284151077270508 1.89541280269622803 0.503056466579437256 122 71 130 252 4
1.72428059577941895 1.40439999103546143 0.503405869007110596 122 71 130 252 4
1.7399524450302124 1.38267612457275391 0.496904283761978149 122 71 130 252 4
1.72619032859802246 1.45222270488739014 0.501815259456634521 122 71 130 252 4
1.71015715599060059 1.49588620662689209 0.499773740768432617 122 71 130 252 4
1.66135990619659424 1.50139331817626953 0.496809899806976318 122 71 130 252 4
1.67049086093902588 1.4814532995223999 0.508021116256713867 122 71 130 252 4
1.71400678157806396 1.34594202041625977 0.503439009189605713 122 71 130 252 4
1.81712710857391357 1.77553963661193848 0.495292872190475464 122 71 130 252 4
1.86332833766937256 1.83427274227142334 0.496301919221878052 122 71 130 252 4
1.9108966588973999 1.83153390884399414 0.49712824821472168 122 71 130 252 4
1.61564886569976807 1.72508740425109863 0.531608521938323975 122 71 130 252 4
1.65006744861602783 1.68084025382995605 0.506638467311859131 122 71 130 252 4
1.66066479682922363 1.7196052074432373 0.534711182117462158 122 71 130 252 4
1.51950347423553467 1.92897975444793701 0.492118567228317261 122 71 130 252 4
1.75036680698394775 1.48477482795715332 0.494987994432449341 122 71 130 252 4
1.72374999523162842 1.53749990463256836 0.496846795082092285 122 71 130 252 4
1.7059791088104248 1.59790170192718506 0.497596681118011475 122 71 130 252 4
1.50020360946655273 1.81032109260559082 0.493512332439422607 122 71 130 252 4
1.53036093711853027 1.94739282131195068 0.488094836473464966 122 71 130 252 4
1.52442371845245361 1.78482735157012939 0.502429544925689697 122 71 130 252 4
1.57706105709075928 1.8343806266784668 0.518729984760284424 122 71 130 252 4
1.71215808391571045 1.73621606826782227 0.531639456748962402 122 71 130 252 4
1.69037938117980957 1.70116984844207764 0.523106873035430908 122 71 130 252 4
1.71757280826568604 1.70282721519470215 0.505199074745178223 122 71 130 252 4
1.67433977127075195 1.6699669361114502 0.512567043304443359 122 71 130 252 4
1.74362015724182129 1.74469280242919922 0.495347023010253906 122 71 130 252 4
1.6703333854675293 1.73527789115905762 0.543853044509887695 122 71 130 252 4
1.75192117691040039 2.02487707138061523 0.49537581205368042 122 71 130 252 4
1.855796217918396 2.06359958648681641 0.49576336145401001 122 71 130 252 4
1.84117293357849121 2.04217791557312012 0.498545408248901367 122 71 130 252 4
1.81930792331695557 1.8396984338760376 0.505571424961090088 122 71 130 252 4
1.6925121545791626 2.00089859962463379 0.494559198617935181 122 71 130 252 4
1.73058867454528809 1.77707469463348389 0.5036468505859375 122 71 130 252 4
1.74609887599945068 1.79558122158050537 0.498774230480194092 122 71 130 252 4
1.72788369655609131 1.76781594753265381 0.522077381610870361 122 71 130 252 4
1.71400952339172363 1.81293261051177979 0.506136298179626465 122 71 130 252 4
1.87331461906433105 1.99929118156433105 0.497521579265594482 122 71 130 252 4
1.93681824207305908 1.85444331169128418 0.494612067937850952 122 71 130 252 4
1.51428186893463135 1.7471698522567749 0.518575787544250488 122 71 130 252 4
1.5697098970413208 1.58387482166290283 0.494324266910552979 122 71 130 252 4
1.56635797023773193 1.90659260749816895 0.495569288730621338 122 71 130 252 4
1.52421307563781738 1.84628903865814209 0.494105219841003418 122 71 130 252 4
1.53680884838104248 1.71470940113067627 0.530358850955963135 122 71 130 252 4
1.58425235748291016 1.74083328247070312 0.542521297931671143 122 71 130 252 4
1.54374349117279053 1.68792045116424561 0.535179734230041504 122 71 130 252 4
1.6103513240814209 1.86230123043060303 0.522542893886566162 122 71 130 252 4
1.6643681526184082 1.86518239974975586 0.553672730922698975 122 71 130 252 4
1.6049114465713501 1.89471542835235596 0.514337241649627686 122 71 130 252 4
1.64155411720275879 1.88260447978973389 0.514618396759033203 122 71 130 252 4
1.67523753643035889 1.87761855125427246 0.516006231307983398 122 71 130 252 4
1.64723992347717285 1.93788087368011475 0.504990279674530029 122 71 130 252 4
1.65839302539825439 1.57944345474243164 0.499282658100128174 122 71 130 252 4
1.6927797794342041 1.66150379180908203 0.503459036350250244 122 71 130 252 4
1.73253655433654785 1.68093359470367432 0.496635675430297852 122 71 130 252 4
1.71239399909973145 1.98020374774932861 0.496678084135055542 122 71 130 252 4
1.85565304756164551 1.879341721534729 0.502434015274047852 122 71 130 252 4
1.75130677223205566 1.84053874015808105 0.496911615133285522 122 71 130 252 4
1.57804667949676514 1.6761404275894165 0.517039239406585693 122 71 130 252 4
1.6090470552444458 1.61492562294006348 0.494990348815917969 122 71 130 252 4
1.54021573066711426 1.60937714576721191 0.502326846122741699 122 71 130 252 4
1.5537334680557251 1.66513073444366455 0.521390914916992188 122 71 130 252 4
1.68179035186767578 1.82972157001495361 0.517015993595123291 122 71 130 252 4
1.70311462879180908 1.85691428184509277 0.498594909906387329 122 71 130 252 4
1.71975088119506836 1.90502214431762695 0.496336817741394043 122 71 130 252 4
1.68303024768829346 1.8906930685043335 0.501596391201019287 122 71 130 252 4
1.69124984741210938 1.93062496185302734 0.497701346874237061 122 71 130 252 4
1.68538999557495117 1.85692799091339111 0.50517958402633667 122 71 130 252 4
1.67863893508911133 1.83810651302337646 0.542991876602172852 122 71 130 252 4
1.64876210689544678 1.51642704010009766 0.495285451412200928 122 71 130 252 4
1.61136555671691895 1.5654062032699585 0.498912990093231201 122 71 130 252 4
1.63669097423553467 1.98040521144866943 0.495605170726776123 122 71 130 252 4
1.60632383823394775 1.95017826557159424 0.497001886367797852 122 71 130 252 4
1.6597285270690918 1.9888153076171875 0.496373504400253296 122 71 130 252 4
1.80227792263031006 1.88243603706359863 0.497796982526779175 122 71 130 252 4
1.8017420768737793 1.97490477561950684 0.497869431972503662 122 71 130 252 4
1.90825605392456055 1.93662965297698975 0.495139926671981812 122 71 130 252 4
1.85217010974884033 1.93041753768920898 0.498349010944366455 122 71 130 252 4
1.90178418159484863 1.90914380550384521 0.500218331813812256 122 71 130 252 4
1.67674911022186279 1.63252651691436768 0.500299751758575439 122 71 130 252 4
1.65062129497528076 1.62353980541229248 0.500941097736358643 122 71 130 252 4
1.61487972736358643 1.83774936199188232 0.547583401203155518 122 71 130 252 4
1.69612360000610352 1.76633834838867188 0.551767349243164062 122 71 130 252 4
1.72289538383483887 1.80290877819061279 0.539579272270202637 122 71 130 252 4
1.64646697044372559 1.83238053321838379 0.56745600700378418 122 71 130 252 4
1.64520478248596191 1.79652369022369385 0.568981945514678955 122 71 130 252 4
1.63893461227416992 1.75612413883209229 0.553807199001312256 122 71 130 252 4
1.61188435554504395 1.78548812866210938 0.559620857238769531 122 71 130 252 4
1.57380592823028564 1.79800891876220703 0.537252902984619141 122 71 130 252 4
1.67700064182281494 1.81544530391693115 0.567319393157958984 122 71 130 252 4
1.71778309345245361 1.78472626209259033 0.546938657760620117 122 71 130 252 4
1.70209312438964844 1.82134866714477539 0.553123950958251953 122 71 130 252 4
1.52474379539489746 1.70222640037536621 0.53884047269821167 122 71 130 252 4
