ply
format ascii 1.0
element vertex 371
property float x
property float y
property float z
property uchar red
property uchar green
property uchar blue
property uchar alpha
property uint label
end_header
5.95338964462280273 2.11172962188720703 1.53997623920440674 213 255 0 249 7
6.00485515594482422 2.12506365776062012 1.56754469871520996 213 255 0 249 7
5.93355083465576172 2.10214853286743164 1.5255587100982666 213 255 0 249 7
5.95100784301757812 2.09736752510070801 1.87974882125854492 213 255 0 249 7
5.99296140670776367 2.11319255828857422 1.89044451713562012 213 255 0 249 7
5.92528295516967773 2.08067941665649414 1.85658407211303711 213 255 0 249 7
5.98568153381347656 2.10755705833435059 1.84197127819061279 213 255 0 249 7
5.85637235641479492 2.03077030181884766 2.16883111000061035 213 255 0 249 7
5.90035724639892578 2.05315732955932617 2.18189907073974609 213 255 0 249 7
5.92869758605957031 2.07297134399414062 2.22402119636535645 213 255 0 249 7
5.9878535270690918 2.10405898094177246 1.93568694591522217 213 255 0 249 7
6.02232980728149414 2.11597800254821777 1.9424293041229248 213 255 0 249 7
6.03458595275878906 2.11988711357116699 2.01058864593505859 213 255 0 249 7
6.00968837738037109 2.1164250373840332 1.78215742111206055 213 255 0 249 7
5.98883390426635742 2.11052680015563965 1.8053661584854126 213 255 0 249 7
5.92847394943237305 2.08728384971618652 1.78835070133209229 213 255 0 249 7
5.93082284927368164 2.09109234809875488 1.6923450231552124 213 255 0 249 7
5.98795175552368164 2.11510705947875977 1.70143699645996094 213 255 0 249 7
5.94496250152587891 2.09717178344726562 1.73999214172363281 213 255 0 249 7
5.98692226409912109 2.11864304542541504 1.64842617511749268 213 255 0 249 7
6.06607246398925781 2.1476142406463623 1.63698577880859375 213 255 0 249 7
6.01085519790649414 2.12470412254333496 1.60862314701080322 213 255 0 249 7
5.88673686981201172 2.0763390064239502 1.71241927146911621 213 255 0 249 7
5.85027360916137695 2.04551815986633301 2.24315285682678223 213 255 0 249 7
5.82571840286254883 2.05696535110473633 2.27923035621643066 213 255 0 249 7
5.96926021575927734 2.08229970932006836 2.11375951766967773 213 255 0 249 7
5.93856430053710938 2.06818175315856934 2.13510823249816895 213 255 0 249 7
5.95903587341308594 2.11135339736938477 1.59417808055877686 213 255 0 249 7
5.9304194450378418 2.09305024147033691 1.61915004253387451 213 255 0 249 7
5.96329069137573242 2.10967445373535156 1.64400863647460938 213 255 0 249 7
6.02048206329345703 2.12445187568664551 1.81198203563690186 213 255 0 249 7
6.03980350494384766 2.12519240379333496 1.77991282939910889 213 255 0 249 7
6.01944875717163086 2.11979269981384277 1.84508979320526123 213 255 0 249 7
6.05323886871337891 2.13208627700805664 1.81759095191955566 213 255 0 249 7
6.06818389892578125 2.13804173469543457 2.00439238548278809 213 255 0 249 7
6.03971433639526367 2.10723567008972168 2.10121917724609375 213 255 0 249 7
5.88483190536499023 2.07056117057800293 1.89230608940124512 213 255 0 249 7
5.84883594512939453 2.05970168113708496 1.8808208703994751 213 255 0 249 7
5.85051059722900391 2.06210613250732422 1.92016196250915527 213 255 0 249 7
5.81577920913696289 2.05645418167114258 1.59111678600311279 213 255 0 249 7
5.82394075393676758 2.05620121955871582 1.66693115234375 213 255 0 249 7
6.08279657363891602 2.14430475234985352 1.85955178737640381 213 255 0 249 7
5.95090246200561523 2.0984954833984375 2.27206802368164062 213 255 0 249 7
6.03018283843994141 2.12504076957702637 1.88678300380706787 213 255 0 249 7
6.06624317169189453 2.13418126106262207 1.89606499671936035 213 255 0 249 7
6.04182338714599609 2.12574005126953125 1.91808450222015381 213 255 0 249 7
6.05932044982910156 2.15179681777954102 1.59570884704589844 213 255 0 249 7
5.99518299102783203 2.11810469627380371 1.5292428731918335 213 255 0 249 7
6.01864480972290039 2.13146257400512695 1.52854371070861816 213 255 0 249 7
6.06107807159423828 2.15351986885070801 1.54368865489959717 213 255 0 249 7
6.03087425231933594 2.13414549827575684 1.59666323661804199 213 255 0 249 7
5.90798091888427734 2.08450579643249512 1.65542125701904297 213 255 0 249 7
5.88480424880981445 2.07683920860290527 2.26859021186828613 213 255 0 249 7
6.07841110229492188 2.14297747611999512 1.80129539966583252 213 255 0 249 7
5.9693293571472168 2.08420205116271973 2.21057415008544922 213 255 0 249 7
6.00145339965820312 2.10138034820556641 2.21964049339294434 213 255 0 249 7
5.83505058288574219 2.05529356002807617 1.79237723350524902 213 255 0 249 7
5.86968421936035156 2.0662386417388916 1.80391824245452881 213 255 0 249 7
5.84953784942626953 2.06659960746765137 1.75541150569915771 213 255 0 249 7
5.84037065505981445 2.05827498435974121 1.84225475788116455 213 255 0 249 7
5.859283447265625 2.04729175567626953 2.05344176292419434 213 255 0 249 7
5.86571645736694336 2.05919647216796875 1.98926615715026855 213 255 0 249 7
5.99450159072875977 2.09780287742614746 2.03166842460632324 213 255 0 249 7
6.04305505752563477 2.11773943901062012 2.03065109252929688 213 255 0 249 7
6.01339435577392578 2.10293388366699219 2.06184887886047363 213 255 0 249 7
5.845306396484375 2.07637953758239746 1.52557611465454102 213 255 0 249 7
5.82416772842407227 2.0664222240447998 1.52606964111328125 213 255 0 249 7
5.98539018630981445 2.09958791732788086 2.00548195838928223 213 255 0 249 7
5.94754123687744141 2.08221888542175293 2.03545188903808594 213 255 0 249 7
5.83816337585449219 2.06525278091430664 1.68634915351867676 213 255 0 249 7
5.88653135299682617 2.07524251937866211 1.74949681758880615 213 255 0 249 7
5.89980125427246094 2.05937504768371582 2.06986093521118164 213 255 0 249 7
5.85449981689453125 2.03798174858093262 2.07595348358154297 213 255 0 249 7
5.87817525863647461 2.05201482772827148 2.1200864315032959 213 255 0 249 7
5.84174394607543945 2.0412909984588623 2.00971317291259766 213 255 0 249 7
5.95116138458251953 2.08876872062683105 1.965484619140625 213 255 0 249 7
5.93599462509155273 2.08617162704467773 1.90604329109191895 213 255 0 249 7
5.99870538711547852 2.1085512638092041 1.9728851318359375 213 255 0 249 7
5.97958707809448242 2.09728169441223145 1.981315016746521 213 255 0 249 7
5.91013193130493164 2.07344865798950195 1.94354701042175293 213 255 0 249 7
5.91874980926513672 2.07143568992614746 1.98341226577758789 213 255 0 249 7
6.0423130989074707 2.13082528114318848 1.74213230609893799 213 255 0 249 7
6.06527376174926758 2.14244818687438965 1.76158952713012695 213 255 0 249 7
5.99368953704833984 2.11908054351806641 1.73985815048217773 213 255 0 249 7
6.02487850189208984 2.12309861183166504 1.70071494579315186 213 255 0 249 7
6.03372001647949219 2.1330561637878418 1.66490542888641357 213 255 0 249 7
6.06692314147949219 2.14301109313964844 1.71481311321258545 213 255 0 249 7
6.10328340530395508 2.15952348709106445 2.25959539413452148 213 255 0 249 7
5.9454503059387207 2.07521319389343262 2.06749916076660156 213 255 0 249 7
5.99082660675048828 2.08997154235839844 2.17339706420898438 213 255 0 249 7
6.03629255294799805 2.10389804840087891 2.17258071899414062 213 255 0 249 7
5.90900087356567383 2.06716418266296387 2.03447651863098145 213 255 0 249 7
6.0806736946105957 2.13763189315795898 1.94973957538604736 213 255 0 249 7
6.09448099136352539 2.14983892440795898 1.98869132995605469 213 255 0 249 7
5.84735870361328125 2.07259535789489746 1.60921871662139893 213 255 0 249 7
5.85999965667724609 2.07411718368530273 1.66499996185302734 213 255 0 249 7
5.87241601943969727 2.04889822006225586 2.22129726409912109 213 255 0 249 7
5.82843494415283203 2.05748414993286133 1.74652016162872314 213 255 0 249 7
5.94232368469238281 2.06820845603942871 2.16806817054748535 213 255 0 249 7
6.0668950080871582 2.11847496032714844 2.18129491806030273 213 255 0 249 7
6.11179971694946289 2.14033627510070801 2.2133324146270752 213 255 0 249 7
6.06891012191772461 2.12696957588195801 2.22166943550109863 213 255 0 249 7
6.09764623641967773 2.1319422721862793 2.14412260055541992 213 255 0 249 7
6.12022304534912109 2.14752459526062012 2.13549447059631348 213 255 0 249 7
6.10515880584716797 2.14352178573608398 2.05874228477478027 213 255 0 249 7
5.89652013778686523 2.08633732795715332 1.57491004467010498 213 255 0 249 7
5.88976240158081055 2.08466291427612305 1.52501296997070312 213 255 0 249 7
6.10813617706298828 2.14592504501342773 2.04080057144165039 213 255 0 249 7
6.04137420654296875 2.11445188522338867 2.22528576850891113 213 255 0 249 7
5.99487829208374023 2.11565804481506348 2.26170659065246582 213 255 0 249 7
6.05888175964355469 2.14053773880004883 2.26223540306091309 213 255 0 249 7
5.89906167984008789 2.07457470893859863 1.7854151725769043 213 255 0 249 7
6.00626659393310547 2.0151822566986084 2.33495926856994629 213 255 0 249 7
6.08921289443969727 2.02171492576599121 2.34318804740905762 213 255 0 249 7
6.05990695953369141 2.01340246200561523 2.33796548843383789 213 255 0 249 7
6.10442352294921875 2.05915379524230957 2.33847284317016602 213 255 0 249 7
5.82727384567260742 2.05770516395568848 2.29682588577270508 213 255 0 249 7
6.12457799911499023 2.16230678558349609 2.20349335670471191 213 255 0 249 7
6.08713769912719727 2.15392851829528809 2.28108119964599609 213 255 0 249 7
6.11785602569580078 2.17588019371032715 2.25825285911560059 213 255 0 249 7
6.11011743545532227 2.17005276679992676 2.30504250526428223 213 255 0 249 7
6.07704830169677734 2.09116697311401367 2.34401750564575195 213 255 0 249 7
6.08464670181274414 2.12311816215515137 2.32900404930114746 213 255 0 249 7
6.14202690124511719 2.10408401489257812 2.3759462833404541 213 255 0 249 7
6.13138246536254883 2.15276837348937988 2.35803627967834473 213 255 0 249 7
6.10518503189086914 2.1176447868347168 2.3476710319519043 213 255 0 249 7
5.90628528594970703 1.95255565643310547 2.33158254623413086 213 255 0 249 7
5.89426946640014648 1.98467683792114258 2.33910965919494629 213 255 0 249 7
5.87595033645629883 2.01200628280639648 2.33434343338012695 213 255 0 249 7
6.05334854125976562 2.08611607551574707 2.33263111114501953 213 255 0 249 7
5.84683084487915039 2.02756977081298828 2.31989765167236328 213 255 0 249 7
5.88652133941650391 2.05878019332885742 2.31157326698303223 213 255 0 249 7
5.89059209823608398 2.07797741889953613 2.2908928394317627 213 255 0 249 7
5.9362492561340332 2.01625251770019531 2.33808684349060059 213 255 0 249 7
5.94061422348022461 2.06934261322021484 2.31049394607543945 213 255 0 249 7
5.9680943489074707 2.01543569564819336 2.33819699287414551 213 255 0 249 7
5.93675804138183594 2.0423731803894043 2.32923507690429688 213 255 0 249 7
5.92533445358276367 1.96457588672637939 2.32783341407775879 213 255 0 249 7
5.94052982330322266 1.99207806587219238 2.33664679527282715 213 255 0 249 7
5.98014688491821289 2.09683847427368164 2.29768705368041992 213 255 0 249 7
5.97041225433349609 2.10304832458496094 2.2850489616394043 213 255 0 249 7
6.02812576293945312 2.13144540786743164 2.27971863746643066 213 255 0 249 7
6.08037233352661133 2.14065980911254883 2.29860854148864746 213 255 0 249 7
6.04066276550292969 2.11712551116943359 2.30410027503967285 213 255 0 249 7
6.01530218124389648 2.0623009204864502 2.3301241397857666 213 255 0 249 7
6.12112760543823242 2.17772889137268066 2.33336544036865234 213 255 0 249 7
6.00147294998168945 1.42797005176544189 1.49963021278381348 213 255 0 249 7
5.99921512603759766 1.45562911033630371 1.50208365917205811 213 255 0 249 7
6.00901365280151367 1.43333160877227783 1.47499573230743408 213 255 0 249 7
6.03249883651733398 1.40646123886108398 2.03742027282714844 213 255 0 249 7
6.03607463836669922 1.42126214504241943 2.11385345458984375 213 255 0 249 7
6.0280604362487793 1.43071448802947998 1.91806113719940186 213 255 0 249 7
6.02898073196411133 1.42875003814697266 2.02187490463256836 213 255 0 249 7
6.00207853317260742 1.45003938674926758 2.28075003623962402 213 255 0 249 7
6.04213523864746094 1.44224250316619873 2.33809924125671387 213 255 0 249 7
6.01590967178344727 1.49755442142486572 2.31017732620239258 213 255 0 249 7
6.00239753723144531 1.42932498455047607 1.5380251407623291 213 255 0 249 7
6.03523063659667969 1.43094491958618164 2.17814445495605469 213 255 0 249 7
6.02201652526855469 1.45827817916870117 2.20724177360534668 213 255 0 249 7
6.02459383010864258 1.43214881420135498 2.2201995849609375 213 255 0 249 7
6.00749683380126953 1.44999992847442627 1.65499997138977051 213 255 0 249 7
6.02020788192749023 1.42876505851745605 1.75334465503692627 213 255 0 249 7
5.99927997589111328 1.4962306022644043 1.7476731538772583 213 255 0 249 7
5.9942021369934082 1.49633133411407471 1.69489848613739014 213 255 0 249 7
6.01614284515380859 1.43223536014556885 1.72394561767578125 213 255 0 249 7
6.00384950637817383 1.44096779823303223 2.25336098670959473 213 255 0 249 7
6.01189470291137695 1.40074610710144043 2.28443121910095215 213 255 0 249 7
6.00724124908447266 1.4148099422454834 2.26506519317626953 213 255 0 249 7
6.03667545318603516 1.40710461139678955 2.09521198272705078 213 255 0 249 7
6.03244400024414062 1.40468287467956543 1.97831785678863525 213 255 0 249 7
6.03099918365478516 1.4089658260345459 1.9202733039855957 213 255 0 249 7
6.0169672966003418 1.44129371643066406 1.78629946708679199 213 255 0 249 7
6.01678895950317383 1.40724039077758789 1.72913169860839844 213 255 0 249 7
6.02228212356567383 1.40851330757141113 1.80386507511138916 213 255 0 249 7
6.00687980651855469 1.5141751766204834 2.01660585403442383 213 255 0 249 7
6.01828289031982422 1.46624994277954102 2.05250000953674316 213 255 0 249 7
5.9936976432800293 1.47524356842041016 1.54600620269775391 213 255 0 249 7
6.00560092926025391 1.44374990463256836 1.60687494277954102 213 255 0 249 7
5.99406242370605469 1.4898827075958252 1.62132811546325684 213 255 0 249 7
6.00985336303710938 1.50701546669006348 2.15124988555908203 213 255 0 249 7
6.01924705505371094 1.4726179838180542 2.09739923477172852 213 255 0 249 7
5.98240756988525391 1.50949645042419434 1.51502108573913574 213 255 0 249 7
6.00653934478759766 1.49309384822845459 1.88685667514801025 213 255 0 249 7
6.02542686462402344 1.42635536193847656 1.86866927146911621 213 255 0 249 7
6.00591278076171875 1.48946559429168701 1.8362499475479126 213 255 0 249 7
6.00583314895629883 1.4178396463394165 1.59591996669769287 213 255 0 249 7
6.01471614837646484 1.41151916980743408 1.66029953956604004 213 255 0 249 7
6.04499530792236328 1.39754629135131836 2.35929203033447266 213 255 0 249 7
6.02178382873535156 1.42111372947692871 2.31486153602600098 213 255 0 249 7
5.98291444778442383 1.51509344577789307 1.50440394878387451 213 255 0 249 7
5.88199710845947266 1.87538290023803711 1.75926733016967773 213 255 0 249 7
5.89558029174804688 1.83343744277954102 1.79062485694885254 213 255 0 249 7
5.9185791015625 1.76625001430511475 1.9224998950958252 213 255 0 249 7
5.91764354705810547 1.78499996662139893 2.04999971389770508 213 255 0 249 7
5.88203763961791992 1.85260510444641113 2.3064267635345459 213 255 0 249 7
5.90697765350341797 1.88727796077728271 2.33116412162780762 213 255 0 249 7
5.87840747833251953 1.90835428237915039 1.9599539041519165 213 255 0 249 7
5.84333419799804688 1.9908447265625 1.94710826873779297 213 255 0 249 7
5.85005569458007812 2.00647544860839844 2.19420695304870605 213 255 0 249 7
5.84763145446777344 2.0282585620880127 2.22118830680847168 213 255 0 249 7
5.83123874664306641 2.02748918533325195 1.91471743583679199 213 255 0 249 7
5.83383893966674805 2.04620718955993652 1.89819884300231934 213 255 0 249 7
5.94052886962890625 1.67231035232543945 1.6881248950958252 213 255 0 249 7
5.87991237640380859 1.83262908458709717 1.53999996185302734 213 255 0 249 7
5.86175537109375 1.88241791725158691 1.53152275085449219 213 255 0 249 7
5.88068342208862305 1.85609495639801025 1.60391688346862793 213 255 0 249 7
5.93124580383300781 1.75492644309997559 2.19000005722045898 213 255 0 249 7
5.90640926361083984 1.82641124725341797 2.20699000358581543 213 255 0 249 7
5.82810878753662109 1.97475254535675049 1.53653812408447266 213 255 0 249 7
5.91077041625976562 1.73521900177001953 1.51489973068237305 213 255 0 249 7
5.93499994277954102 1.66877424716949463 1.58499991893768311 213 255 0 249 7
5.92413330078125 1.68828117847442627 1.53312492370605469 213 255 0 249 7
5.85614442825317383 1.92758274078369141 1.61219489574432373 213 255 0 249 7
5.83594369888305664 1.97749996185302734 1.65874993801116943 213 255 0 249 7
5.89159440994262695 1.79776442050933838 1.51777863502502441 213 255 0 249 7
5.90635347366333008 1.75250005722045898 1.57249999046325684 213 255 0 249 7
5.98886013031005859 1.53969156742095947 1.70743680000305176 213 255 0 249 7
5.96639633178710938 1.57636213302612305 2.2702028751373291 213 255 0 249 7
5.99664592742919922 1.49228215217590332 2.28064632415771484 213 255 0 249 7
5.98687839508056641 1.51112020015716553 2.25814461708068848 213 255 0 249 7
5.98207759857177734 1.5535656213760376 2.28757286071777344 213 255 0 249 7
5.95988225936889648 1.65330839157104492 1.91812491416931152 213 255 0 249 7
5.97627162933349609 1.58065176010131836 1.69348156452178955 213 255 0 249 7
5.93967819213867188 1.67848265171051025 1.74812495708465576 213 255 0 249 7
5.97699356079101562 1.58326530456542969 1.76749992370605469 213 255 0 249 7
5.85838222503662109 1.9299999475479126 1.69124996662139893 213 255 0 249 7
5.88621997833251953 1.85437488555908203 1.7115623950958252 213 255 0 249 7
6.03871393203735352 1.57021749019622803 2.31342935562133789 213 255 0 249 7
6.02277517318725586 1.60956251621246338 2.3165137767791748 213 255 0 249 7
6.02499151229858398 1.53065180778503418 2.32387924194335938 213 255 0 249 7
5.91235446929931641 1.8077998161315918 2.1512296199798584 213 255 0 249 7
5.89787483215332031 1.85690879821777344 2.02874994277954102 213 255 0 249 7
5.8774876594543457 1.92037320137023926 1.99226295948028564 213 255 0 249 7
5.91157341003417969 1.82922708988189697 2.08375692367553711 213 255 0 249 7
6.06487607955932617 1.55889332294464111 2.30431461334228516 213 255 0 249 7
5.81712150573730469 2.02834320068359375 2.29809713363647461 213 255 0 249 7
5.81743240356445312 2.02606391906738281 2.2853705883026123 213 255 0 249 7
5.94413328170776367 1.69623219966888428 1.98000144958496094 213 255 0 249 7
5.88355684280395508 1.91059589385986328 2.07003211975097656 213 255 0 249 7
5.88755035400390625 1.90071010589599609 2.12124061584472656 213 255 0 249 7
5.88713645935058594 1.89380133152008057 2.19855499267578125 213 255 0 249 7
5.86628913879394531 1.93904256820678711 2.22707343101501465 213 255 0 249 7
5.88615751266479492 1.87616634368896484 2.23777914047241211 213 255 0 249 7
5.97053909301757812 1.57249999046325684 1.58499991893768311 213 255 0 249 7
5.97175073623657227 1.54375004768371582 1.52999997138977051 213 255 0 249 7
5.95490455627441406 1.58895206451416016 1.51876580715179443 213 255 0 249 7
5.83884525299072266 1.99749994277954102 1.85500001907348633 213 255 0 249 7
5.85466432571411133 1.91249990463256836 1.56374990940093994 213 255 0 249 7
5.81368827819824219 2.04062509536743164 1.62973403930664062 213 255 0 249 7
5.82164621353149414 2.00652480125427246 1.58919310569763184 213 255 0 249 7
5.81763362884521484 2.04498457908630371 1.65191388130187988 213 255 0 249 7
5.93294239044189453 1.70856642723083496 1.80250000953674316 213 255 0 249 7
5.91600656509399414 1.75749993324279785 1.81999993324279785 213 255 0 249 7
5.91326713562011719 1.75120770931243896 1.74562501907348633 213 255 0 249 7
5.96920442581176758 1.73797369003295898 2.32650542259216309 213 255 0 249 7
5.99167490005493164 1.72461175918579102 2.32123184204101562 213 255 0 249 7
5.95607280731201172 1.73442864418029785 2.32426214218139648 213 255 0 249 7
5.98151731491088867 1.75511550903320312 2.32137131690979004 213 255 0 249 7
5.87400627136230469 1.84680855274200439 2.28265047073364258 213 255 0 249 7
5.86937713623046875 1.86387836933135986 2.2946784496307373 213 255 0 249 7
6.00999307632446289 1.52149391174316406 2.07355403900146484 213 255 0 249 7
6.00453472137451172 1.52868437767028809 2.12288212776184082 213 255 0 249 7
5.84477901458740234 1.97560393810272217 1.8128124475479126 213 255 0 249 7
5.86002302169799805 1.9378124475479126 1.8362499475479126 213 255 0 249 7
5.86405277252197266 1.92085886001586914 1.75812506675720215 213 255 0 249 7
5.92899990081787109 1.83056330680847168 2.32984280586242676 213 255 0 249 7
5.95490789413452148 1.82187175750732422 2.32427716255187988 213 255 0 249 7
5.93496990203857422 1.78518342971801758 2.32684183120727539 213 255 0 249 7
5.96410369873046875 1.78787124156951904 2.32298183441162109 213 255 0 249 7
5.89422273635864258 1.77713513374328613 2.27217841148376465 213 255 0 249 7
5.90217208862304688 1.80647993087768555 2.24185013771057129 213 255 0 249 7
5.88397312164306641 1.81462132930755615 2.28796076774597168 213 255 0 249 7
5.90910053253173828 1.81978261470794678 2.31776523590087891 213 255 0 249 7
5.90546941757202148 1.75598549842834473 2.29414725303649902 213 255 0 249 7
5.99664497375488281 1.62788867950439453 2.32194900512695312 213 255 0 249 7
5.99744462966918945 1.67408239841461182 2.32095909118652344 213 255 0 249 7
6.0132899284362793 1.56228744983673096 2.32275843620300293 213 255 0 249 7
5.99776649475097656 1.53874993324279785 2.18249988555908203 213 255 0 249 7
5.99813699722290039 1.51904499530792236 2.22484993934631348 213 255 0 249 7
5.89837455749511719 1.76492297649383545 2.28561758995056152 213 255 0 249 7
5.91530132293701172 1.71375513076782227 2.26953601837158203 213 255 0 249 7
5.951904296875 1.65312492847442627 1.80343747138977051 213 255 0 249 7
5.94200801849365234 1.69310665130615234 1.88218748569488525 213 255 0 249 7
5.94556236267089844 1.68244576454162598 1.85500001907348633 213 255 0 249 7
5.97910356521606445 1.60374999046325684 2.18249988555908203 213 255 0 249 7
5.95366096496582031 1.67896509170532227 2.18312478065490723 213 255 0 249 7
5.97770404815673828 1.59267830848693848 2.21500682830810547 213 255 0 249 7
5.955047607421875 1.66750001907348633 2.20749998092651367 213 255 0 249 7
5.95726585388183594 1.63897013664245605 2.23183298110961914 213 255 0 249 7
6.0109562873840332 1.48800456523895264 1.91718244552612305 213 255 0 249 7
6.00098323822021484 1.54171276092529297 1.96456682682037354 213 255 0 249 7
5.96723747253417969 1.57999992370605469 2.25499987602233887 213 255 0 249 7
5.92710542678833008 1.68184292316436768 2.28606176376342773 213 255 0 249 7
5.98217105865478516 1.58532440662384033 2.30308890342712402 213 255 0 249 7
5.93915081024169922 1.64510345458984375 2.26532936096191406 213 255 0 249 7
5.82272720336914062 2.00793099403381348 1.64133954048156738 213 255 0 249 7
5.8188939094543457 2.03620648384094238 1.67292070388793945 213 255 0 249 7
5.82286500930786133 2.02749991416931152 1.72250008583068848 213 255 0 249 7
5.83247947692871094 1.99874997138977051 1.74874997138977051 213 255 0 249 7
5.99566841125488281 1.52637529373168945 1.79437494277954102 213 255 0 249 7
5.91534614562988281 1.74000000953674316 1.69499993324279785 213 255 0 249 7
5.98101043701171875 1.61048603057861328 2.11339521408081055 213 255 0 249 7
5.87263965606689453 1.88999998569488525 1.66999995708465576 213 255 0 249 7
5.88106918334960938 1.85749995708465576 1.64562499523162842 213 255 0 249 7
5.98908805847167969 1.54722499847412109 1.76187491416931152 213 255 0 249 7
5.88941383361816406 1.82312488555908203 1.65812492370605469 213 255 0 249 7
5.89341402053833008 1.80385112762451172 1.69762790203094482 213 255 0 249 7
5.98888301849365234 1.58485996723175049 2.09752845764160156 213 255 0 249 7
5.86260271072387695 1.91387331485748291 2.30744099617004395 213 255 0 249 7
5.87512445449829102 1.95947933197021484 2.33181142807006836 213 255 0 249 7
5.83426141738891602 1.99651384353637695 2.30885887145996094 213 255 0 249 7
5.90946531295776367 1.82085204124450684 2.00062108039855957 213 255 0 249 7
5.81214332580566406 2.03933858871459961 1.56892728805541992 213 255 0 249 7
5.81104087829589844 2.05238819122314453 1.52569389343261719 213 255 0 249 7
5.97580718994140625 1.6153416633605957 1.95749998092651367 213 255 0 249 7
5.86704158782958984 1.94620311260223389 2.18998074531555176 213 255 0 249 7
5.86263942718505859 1.95999991893768311 2.13062477111816406 213 255 0 249 7
5.87561368942260742 1.90431368350982666 1.89429688453674316 213 255 0 249 7
5.89420032501220703 1.85062503814697266 1.90937495231628418 213 255 0 249 7
5.90564918518066406 1.84375 2.11999988555908203 213 255 0 249 7
5.88884210586547852 1.88627076148986816 2.15984272956848145 213 255 0 249 7
5.84047460556030273 1.97499990463256836 1.74500000476837158 213 255 0 249 7
5.92848587036132812 1.87562429904937744 2.32743453979492188 213 255 0 249 7
5.98456048965454102 1.54344046115875244 1.6332237720489502 213 255 0 249 7
5.85062980651855469 1.98861181735992432 2.02442145347595215 213 255 0 249 7
5.85077238082885742 1.98052775859832764 1.98322272300720215 213 255 0 249 7
5.85147857666015625 1.99438202381134033 2.06932759284973145 213 255 0 249 7
5.893585205078125 1.84912276268005371 1.83933210372924805 213 255 0 249 7
5.91348648071289062 1.81036913394927979 2.03936004638671875 213 255 0 249 7
5.92515945434570312 1.75 1.97749996185302734 213 255 0 249 7
5.91486358642578125 1.78571772575378418 1.97031247615814209 213 255 0 249 7
5.92580699920654297 1.75874996185302734 2.06624984741210938 213 255 0 249 7
5.84576940536499023 2.02152872085571289 2.05945825576782227 213 255 0 249 7
5.85090446472167969 2.01030492782592773 2.1444246768951416 213 255 0 249 7
5.92064571380615234 1.74719619750976562 2.305999755859375 213 255 0 249 7
5.89423990249633789 1.79355883598327637 1.60637545585632324 213 255 0 249 7
5.83834028244018555 2.02047920227050781 1.97383236885070801 213 255 0 249 7
5.84093332290649414 2.0415656566619873 1.96950387954711914 213 255 0 249 7
5.90638446807861328 1.79001903533935547 1.84610152244567871 213 255 0 249 7
5.92646551132202148 1.75934457778930664 2.21374988555908203 213 255 0 249 7
5.90527009963989258 1.78429794311523438 1.78718745708465576 213 255 0 249 7
5.96551036834716797 1.59874999523162842 1.63750004768371582 213 255 0 249 7
5.9824519157409668 1.55196487903594971 1.6689218282699585 213 255 0 249 7
5.93862724304199219 1.7193748950958252 2.02156233787536621 213 255 0 249 7
5.9362640380859375 1.6724998950958252 1.62999999523162842 213 255 0 249 7
5.83720684051513672 2.02987408638000488 2.24864697456359863 213 255 0 249 7
5.82668256759643555 2.04325366020202637 1.79761803150177002 213 255 0 249 7
5.82716941833496094 2.0260465145111084 1.78580820560455322 213 255 0 249 7
5.83011102676391602 2.02842259407043457 1.85042452812194824 213 255 0 249 7
5.96272897720336914 1.64124321937561035 2.30608773231506348 213 255 0 249 7
5.93549823760986328 1.67414391040802002 2.29405498504638672 213 255 0 249 7
5.92713069915771484 1.73249995708465576 2.23507118225097656 213 255 0 249 7
5.92014884948730469 1.71444869041442871 1.59281253814697266 213 255 0 249 7
5.90321445465087891 1.7737499475479126 1.64499998092651367 213 255 0 249 7
5.97900104522705078 1.60500001907348633 2.14999985694885254 213 255 0 249 7
5.9058842658996582 1.80241227149963379 1.87999999523162842 213 255 0 249 7
5.94996929168701172 1.68982815742492676 2.07148432731628418 213 255 0 249 7
5.95008373260498047 1.6949765682220459 2.13859367370605469 213 255 0 249 7
5.92448663711547852 1.77163028717041016 2.12950730323791504 213 255 0 249 7
5.98534107208251953 1.56562495231628418 1.8274998664855957 213 255 0 249 7
5.99665164947509766 1.54499995708465576 1.9143749475479126 213 255 0 249 7
5.99245357513427734 1.5549999475479126 1.86500000953674316 213 255 0 249 7
5.83603954315185547 1.95679199695587158 2.2948753833770752 213 255 0 249 7
5.8459019660949707 1.99843466281890869 2.24727559089660645 213 255 0 249 7
5.83494234085083008 1.95858526229858398 2.28226280212402344 213 255 0 249 7
5.85275077819824219 1.93395745754241943 2.25931859016418457 213 255 0 249 7
5.97763156890869141 1.61275148391723633 2.01249980926513672 213 255 0 249 7
5.96951103210449219 1.63999998569488525 2.03499984741210938 213 255 0 249 7
5.98819065093994141 1.58437490463256836 2.01874995231628418 213 255 0 249 7
5.99246597290039062 1.57687497138977051 2.05749988555908203 213 255 0 249 7
6.00133085250854492 1.51920008659362793 1.8562626838684082 213 255 0 249 7
