ply
format ascii 1.0
element vertex 500
property float x
property float y
property float z
property uchar red
property uchar green
property uchar blue
property uchar alpha
property uint label
end_header
6.06174468994140625 2.90209817886352539 1.18879079818725586 95 173 78 225 31
6.06192636489868164 2.87212944030761719 1.16456890106201172 95 173 78 225 31
5.96864748001098633 2.81847858428955078 1.1872258186340332 95 173 78 225 31
5.97138214111328125 2.84896564483642578 1.18869209289550781 95 173 78 225 31
5.99883079528808594 2.90192580223083496 1.18125617504119873 95 173 78 225 31
6.00902366638183594 2.87311148643493652 1.1888880729675293 95 173 78 225 31
6.0943455696105957 2.98745107650756836 1.05927956104278564 95 173 78 225 31
6.09435367584228516 2.95942044258117676 1.04706037044525146 95 173 78 225 31
6.09274101257324219 2.97512054443359375 1.05057311058044434 95 173 78 225 31
6.10063600540161133 3.004241943359375 1.08749997615814209 95 173 78 225 31
6.0644831657409668 2.8636481761932373 0.864858508110046387 95 173 78 225 31
6.07167387008666992 2.85685324668884277 0.65099567174911499 95 173 78 225 31
6.13049745559692383 3.06558942794799805 0.895688891410827637 95 173 78 225 31
6.09399843215942383 3.01385092735290527 0.862140953540802002 95 173 78 225 31
6.09923362731933594 2.96967077255249023 0.890792369842529297 95 173 78 225 31
6.09409189224243164 2.98788332939147949 0.905130445957183838 95 173 78 225 31
6.09384012222290039 2.99759912490844727 0.953072309494018555 95 173 78 225 31
6.10693168640136719 3.03378391265869141 0.964248895645141602 95 173 78 225 31
6.09974050521850586 3.01657295227050781 0.967422842979431152 95 173 78 225 31
6.06441593170166016 2.98148417472839355 1.19619691371917725 95 173 78 225 31
6.11049842834472656 3.03975844383239746 1.06075763702392578 95 173 78 225 31
6.13724279403686523 3.1021573543548584 1.09714090824127197 95 173 78 225 31
6.13653850555419922 3.09235477447509766 1.03542733192443848 95 173 78 225 31
6.11507511138916016 3.04332494735717773 1.02627658843994141 95 173 78 225 31
6.14694070816040039 3.10500001907348633 0.9375 95 173 78 225 31
6.12084436416625977 3.05949735641479492 1.13499999046325684 95 173 78 225 31
6.14299726486206055 3.1240992546081543 1.16441190242767334 95 173 78 225 31
6.10517072677612305 3.05072832107543945 1.19622623920440674 95 173 78 225 31
6.11348152160644531 3.04955649375915527 1.18631315231323242 95 173 78 225 31
6.13465404510498047 3.11185336112976074 1.18589258193969727 95 173 78 225 31
6.07320594787597656 2.86970973014831543 1.18501794338226318 95 173 78 225 31
6.06227827072143555 2.84176993370056152 1.18828022480010986 95 173 78 225 31
6.0399327278137207 2.80509853363037109 1.15018236637115479 95 173 78 225 31
6.05828189849853516 2.83474850654602051 1.09056603908538818 95 173 78 225 31
6.06922769546508789 2.85828590393066406 1.15768039226531982 95 173 78 225 31
5.97263383865356445 2.78059124946594238 1.18894565105438232 95 173 78 225 31
6.02418756484985352 2.84998822212219238 1.19261074066162109 95 173 78 225 31
6.05224847793579102 2.8678741455078125 1.18849062919616699 95 173 78 225 31
6.035797119140625 2.80097270011901855 1.17447936534881592 95 173 78 225 31
6.06653213500976562 2.8506767749786377 1.19145810604095459 95 173 78 225 31
6.09609365463256836 3.00338506698608398 0.826384484767913818 95 173 78 225 31
6.10396766662597656 2.98548293113708496 0.829077780246734619 95 173 78 225 31
6.12012577056884766 3.04572367668151855 0.973982036113739014 95 173 78 225 31
6.08315277099609375 2.88386082649230957 0.650542974472045898 95 173 78 225 31
6.07711076736450195 2.91642522811889648 1.12843751907348633 95 173 78 225 31
6.02131462097167969 2.96803426742553711 1.18194293975830078 95 173 78 225 31
6.05774211883544922 2.84185218811035156 0.944684922695159912 95 173 78 225 31
6.06415033340454102 2.87587094306945801 0.934745430946350098 95 173 78 225 31
6.06339550018310547 2.88550734519958496 0.859471559524536133 95 173 78 225 31
6.04888105392456055 2.8239588737487793 0.954604387283325195 95 173 78 225 31
6.04938411712646484 2.82502436637878418 0.876334905624389648 95 173 78 225 31
6.06392002105712891 2.85211753845214844 0.675435066223144531 95 173 78 225 31
6.06743717193603516 2.84528207778930664 0.6039695143699646 95 173 78 225 31
6.07273769378662109 2.89883089065551758 0.909094095230102539 95 173 78 225 31
6.09281206130981445 2.94999980926513672 0.928749978542327881 95 173 78 225 31
6.04485034942626953 3.06986689567565918 1.1707608699798584 95 173 78 225 31
6.04223728179931641 3.02801942825317383 1.18225967884063721 95 173 78 225 31
6.07308483123779297 3.06856989860534668 1.18909001350402832 95 173 78 225 31
6.07035160064697266 2.86854958534240723 0.772116661071777344 95 173 78 225 31
6.06607866287231445 2.89775252342224121 0.771912157535552979 95 173 78 225 31
6.09747314453125 3.0959928035736084 1.19392979145050049 95 173 78 225 31
5.99405574798583984 2.76338934898376465 1.18490946292877197 95 173 78 225 31
6.07431602478027344 2.90069222450256348 0.966657698154449463 95 173 78 225 31
6.0604863166809082 2.86997556686401367 1.03690052032470703 95 173 78 225 31
6.08303165435791016 3.0079798698425293 1.1975095272064209 95 173 78 225 31
6.08772087097167969 2.98444747924804688 1.19464385509490967 95 173 78 225 31
6.08207607269287109 2.92499995231628418 0.944999933242797852 95 173 78 225 31
6.08413505554199219 2.92857551574707031 0.995081007480621338 95 173 78 225 31
6.058807373046875 2.86578536033630371 0.983408987522125244 95 173 78 225 31
6.06450510025024414 2.88470864295959473 1.0722273588180542 95 173 78 225 31
6.08654642105102539 2.93523263931274414 1.05658996105194092 95 173 78 225 31
6.07719182968139648 2.87838268280029297 0.738014578819274902 95 173 78 225 31
6.14314889907836914 3.12490105628967285 1.11527371406555176 95 173 78 225 31
6.14645862579345703 3.12664461135864258 1.06792616844177246 95 173 78 225 31
6.04523134231567383 2.92981553077697754 1.19575977325439453 95 173 78 225 31
6.03971099853515625 2.80731630325317383 0.985024511814117432 95 173 78 225 31
6.06607437133789062 2.85111141204833984 1.11870062351226807 95 173 78 225 31
6.04061698913574219 2.80539584159851074 1.05551338195800781 95 173 78 225 31
6.05692911148071289 2.84012079238891602 1.05093276500701904 95 173 78 225 31
6.05941963195800781 2.86346936225891113 1.08867144584655762 95 173 78 225 31
6.14404296875 3.1332557201385498 1.03197717666625977 95 173 78 225 31
6.14722347259521484 3.11500000953674316 1.01749992370605469 95 173 78 225 31
6.08445644378662109 2.93882966041564941 0.763452291488647461 95 173 78 225 31
6.0186467170715332 2.78921675682067871 1.18725907802581787 95 173 78 225 31
6.05243062973022461 2.82638096809387207 0.746346414089202881 95 173 78 225 31
6.06017494201660156 2.83696842193603516 0.700998604297637939 95 173 78 225 31
6.13861942291259766 3.1434943675994873 1.18777227401733398 95 173 78 225 31
6.12598609924316406 3.12430548667907715 1.19691157341003418 95 173 78 225 31
6.08620071411132812 3.12634086608886719 1.16769850254058838 95 173 78 225 31
6.07653617858886719 2.90902328491210938 0.838448405265808105 95 173 78 225 31
6.09285926818847656 2.94998311996459961 0.85989689826965332 95 173 78 225 31
6.0958099365234375 2.9597630500793457 0.993051528930664062 95 173 78 225 31
6.09328413009643555 2.9849998950958252 0.978749990463256836 95 173 78 225 31
6.10861444473266602 3.03525471687316895 1.02709710597991943 95 173 78 225 31
6.15267038345336914 3.11425375938415527 0.881728231906890869 95 173 78 225 31
6.14796733856201172 3.1254734992980957 0.931167960166931152 95 173 78 225 31
6.0930633544921875 2.96405577659606934 1.10198056697845459 95 173 78 225 31
6.10136032104492188 2.99749994277954102 1.15249991416931152 95 173 78 225 31
6.11208724975585938 3.03499984741210938 1.17499995231628418 95 173 78 225 31
6.08873128890991211 2.95668601989746094 1.17459249496459961 95 173 78 225 31
6.12693500518798828 3.1246178150177002 0.591052711009979248 95 173 78 225 31
6.07555675506591797 3.12831401824951172 0.595279872417449951 95 173 78 225 31
6.13815975189208984 3.11711978912353516 0.6297798752784729 95 173 78 225 31
6.11172771453857422 3.15375804901123047 0.632966101169586182 95 173 78 225 31
6.10596799850463867 3.13056516647338867 0.609580695629119873 95 173 78 225 31
6.14147853851318359 3.08132767677307129 0.816509425640106201 95 173 78 225 31
6.12479209899902344 3.04819393157958984 0.876247584819793701 95 173 78 225 31
6.14851665496826172 3.11308860778808594 0.827798068523406982 95 173 78 225 31
6.1256561279296875 3.03990435600280762 0.832363128662109375 95 173 78 225 31
6.11362934112548828 3.03339982032775879 0.847071349620819092 95 173 78 225 31
6.04457759857177734 3.09740495681762695 0.63045656681060791 95 173 78 225 31
6.12543725967407227 3.03252363204956055 0.757629811763763428 95 173 78 225 31
6.12937116622924805 3.12290525436401367 0.711286008358001709 95 173 78 225 31
6.1478419303894043 3.10074520111083984 0.789967894554138184 95 173 78 225 31
6.13676261901855469 3.0898900032043457 0.730171144008636475 95 173 78 225 31
6.13010883331298828 3.05546665191650391 0.716366171836853027 95 173 78 225 31
6.07856416702270508 3.12830471992492676 1.04962599277496338 95 173 78 225 31
6.05804109573364258 3.11419582366943359 0.795510053634643555 95 173 78 225 31
6.05320262908935547 3.10760760307312012 0.735787689685821533 95 173 78 225 31
6.10833835601806641 3.13445186614990234 1.15111386775970459 95 173 78 225 31
6.07538414001464844 3.13135337829589844 0.978425562381744385 95 173 78 225 31
6.10459470748901367 3.03389573097229004 0.889039218425750732 95 173 78 225 31
6.09667301177978516 2.96870923042297363 0.750265717506408691 95 173 78 225 31
6.10417079925537109 3.02513957023620605 0.793603122234344482 95 173 78 225 31
6.11697626113891602 3.04221510887145996 0.915845155715942383 95 173 78 225 31
6.07721328735351562 2.8899834156036377 0.697724521160125732 95 173 78 225 31
6.0784916877746582 2.89455652236938477 0.656820237636566162 95 173 78 225 31
6.07599925994873047 3.13402509689331055 0.879014968872070312 95 173 78 225 31
6.11635589599609375 3.14573955535888672 0.697567343711853027 95 173 78 225 31
6.06544971466064453 3.10757541656494141 0.658930599689483643 95 173 78 225 31
6.10280990600585938 3.14213347434997559 0.682900965213775635 95 173 78 225 31
6.10699367523193359 3.1575310230255127 0.643764972686767578 95 173 78 225 31
6.13710975646972656 3.14526653289794922 0.616324663162231445 95 173 78 225 31
6.08867120742797852 3.15000271797180176 0.61856687068939209 95 173 78 225 31
6.13585519790649414 3.14194512367248535 0.665449678897857666 95 173 78 225 31
6.06809473037719727 3.10907912254333496 1.12059128284454346 95 173 78 225 31
6.05315780639648438 3.09697628021240234 1.13303899765014648 95 173 78 225 31
6.06198596954345703 3.11075949668884277 1.16554069519042969 95 173 78 225 31
6.11676263809204102 3.01541900634765625 0.73707050085067749 95 173 78 225 31
6.10752630233764648 3.00281929969787598 0.74070662260055542 95 173 78 225 31
6.10309791564941406 3.01614022254943848 0.765249967575073242 95 173 78 225 31
6.11633682250976562 3.02611470222473145 0.77817988395690918 95 173 78 225 31
6.07831001281738281 2.94287753105163574 0.632195949554443359 95 173 78 225 31
6.0509486198425293 2.88994765281677246 0.59082484245300293 95 173 78 225 31
6.06328201293945312 2.91630101203918457 0.607989490032196045 95 173 78 225 31
6.06836032867431641 2.90152168273925781 0.609663188457489014 95 173 78 225 31
6.13305187225341797 3.13398551940917969 0.824830889701843262 95 173 78 225 31
6.10497140884399414 3.14131665229797363 0.824647188186645508 95 173 78 225 31
6.06604766845703125 3.12346792221069336 0.834327340126037598 95 173 78 225 31
6.06657886505126953 3.11539745330810547 0.750058114528656006 95 173 78 225 31
6.08498382568359375 3.12442779541015625 1.1067739725112915 95 173 78 225 31
6.10717153549194336 3.13852953910827637 1.11919248104095459 95 173 78 225 31
6.07745838165283203 3.12723207473754883 1.0252070426940918 95 173 78 225 31
6.13535785675048828 3.13729071617126465 1.03738272190093994 95 173 78 225 31
6.11801719665527344 3.13548684120178223 1.04484820365905762 95 173 78 225 31
6.1295928955078125 3.05813694000244141 0.610797703266143799 95 173 78 225 31
6.14110183715820312 3.09035229682922363 0.606339693069458008 95 173 78 225 31
6.12935400009155273 3.06926321983337402 0.589195549488067627 95 173 78 225 31
6.09935283660888672 3.11066269874572754 0.582581281661987305 95 173 78 225 31
6.12667226791381836 3.13719725608825684 0.70287400484085083 95 173 78 225 31
6.12395763397216797 3.13639712333679199 0.763607978820800781 95 173 78 225 31
6.13357973098754883 3.12345361709594727 0.782363712787628174 95 173 78 225 31
6.09683465957641602 3.13599872589111328 0.760769367218017578 95 173 78 225 31
6.11581659317016602 3.1375725269317627 0.752056241035461426 95 173 78 225 31
6.11817121505737305 3.1401219367980957 0.992145121097564697 95 173 78 225 31
6.10459136962890625 3.14326167106628418 1.05795764923095703 95 173 78 225 31
6.10547542572021484 3.14554905891418457 1.00130176544189453 95 173 78 225 31
6.07273387908935547 2.86707067489624023 0.595324575901031494 95 173 78 225 31
6.07093381881713867 3.13506460189819336 0.60461723804473877 95 173 78 225 31
6.05153894424438477 3.12446689605712891 0.596102237701416016 95 173 78 225 31
6.05512189865112305 3.11606860160827637 0.615570545196533203 95 173 78 225 31
6.07013082504272461 2.91058993339538574 0.727142155170440674 95 173 78 225 31
6.12706804275512695 3.09022998809814453 0.694449305534362793 95 173 78 225 31
6.12059450149536133 3.04816031455993652 0.682453572750091553 95 173 78 225 31
6.13670587539672852 3.11864972114562988 0.667080700397491455 95 173 78 225 31
6.12475919723510742 3.02532362937927246 0.634396374225616455 95 173 78 225 31
6.04562044143676758 3.08381319046020508 0.678795993328094482 95 173 78 225 31
6.09849214553833008 3.1308133602142334 0.722291886806488037 95 173 78 225 31
6.08823680877685547 2.96106219291687012 0.6534004807472229 95 173 78 225 31
6.11093235015869141 2.99742031097412109 0.654001057147979736 95 173 78 225 31
6.10063791275024414 2.99608421325683594 0.69517052173614502 95 173 78 225 31
6.11022472381591797 3.01035380363464355 0.676967203617095947 95 173 78 225 31
6.1159510612487793 3.00921297073364258 0.597896814346313477 95 173 78 225 31
6.11127662658691406 2.99080014228820801 0.628175973892211914 95 173 78 225 31
6.11408710479736328 3.12202024459838867 1.11192548274993896 95 173 78 225 31
6.13513517379760742 3.13084793090820312 1.12200284004211426 95 173 78 225 31
6.12191057205200195 3.15764856338500977 1.17398369312286377 95 173 78 225 31
6.13183259963989258 3.15593290328979492 1.18200409412384033 95 173 78 225 31
6.13299989700317383 3.13292694091796875 1.16367685794830322 95 173 78 225 31
6.07707929611206055 2.94592642784118652 0.670003116130828857 95 173 78 225 31
6.07036399841308594 2.91842746734619141 0.694827497005462646 95 173 78 225 31
6.06643819808959961 2.91196250915527344 0.646710216999053955 95 173 78 225 31
6.07230472564697266 2.90449213981628418 0.693007290363311768 95 173 78 225 31
6.13418340682983398 3.13840460777282715 0.921971797943115234 95 173 78 225 31
6.1245570182800293 3.14118456840515137 0.909835159778594971 95 173 78 225 31
6.07532930374145508 3.13283014297485352 0.930130720138549805 95 173 78 225 31
6.10002565383911133 3.1441352367401123 0.913254439830780029 95 173 78 225 31
6.11491060256958008 3.14056754112243652 0.942165791988372803 95 173 78 225 31
5.50651788711547852 1.84434640407562256 0.0234360974282026291 95 173 78 225 31
5.4835047721862793 1.89084422588348389 0.0249504707753658295 95 173 78 225 31
5.47008419036865234 2.16940593719482422 0.0390991345047950745 95 173 78 225 31
5.49077367782592773 2.19380450248718262 0.0421741008758544922 95 173 78 225 31
5.44074106216430664 2.40883278846740723 0.0385335907340049744 95 173 78 225 31
5.48569011688232422 2.38468742370605469 0.049342762678861618 95 173 78 225 31
5.49672746658325195 2.405426025390625 0.0603182576596736908 95 173 78 225 31
5.44586515426635742 2.46566677093505859 0.0453795082867145538 95 173 78 225 31
5.47414779663085938 2.46107721328735352 0.0561467930674552917 95 173 78 225 31
5.33755731582641602 2.05890798568725586 0.0488151945173740387 95 173 78 225 31
5.39449787139892578 2.05434894561767578 0.0444116517901420593 95 173 78 225 31
5.41255283355712891 2.10698103904724121 0.0418987907469272614 95 173 78 225 31
5.44116926193237305 2.00285887718200684 0.0342141725122928619 95 173 78 225 31
5.3494868278503418 2.13199090957641602 0.0510161630809307098 95 173 78 225 31
5.30954694747924805 2.09646248817443848 0.0522109270095825195 95 173 78 225 31
5.38894033432006836 2.00295591354370117 0.0525256581604480743 95 173 78 225 31
5.37343025207519531 1.95421874523162842 0.0560489781200885773 95 173 78 225 31
5.34540033340454102 1.97807753086090088 0.0627854093909263611 95 173 78 225 31
5.39164638519287109 1.93767130374908447 0.0512768886983394623 95 173 78 225 31
5.41790199279785156 1.94139206409454346 0.050124824047088623 95 173 78 225 31
5.46755504608154297 2.27403163909912109 0.0389832966029644012 95 173 78 225 31
5.4687037467956543 2.22127914428710938 0.0367937125265598297 95 173 78 225 31
5.49327802658081055 2.31468582153320312 0.0473358668386936188 95 173 78 225 31
5.35626697540283203 2.24560046195983887 0.0403462424874305725 95 173 78 225 31
5.42113733291625977 2.24791073799133301 0.0355420894920825958 95 173 78 225 31
5.40218734741210938 2.30437493324279785 0.0386784449219703674 95 173 78 225 31
5.34033966064453125 2.38002228736877441 0.0421746894717216492 95 173 78 225 31
5.41696357727050781 2.35924863815307617 0.0376697182655334473 95 173 78 225 31
5.47844219207763672 2.02976536750793457 0.0339629165828227997 95 173 78 225 31
5.44539880752563477 2.07960009574890137 0.0365235544741153717 95 173 78 225 31
5.46101617813110352 1.68679964542388916 0.0574833527207374573 95 173 78 225 31
5.4379730224609375 1.75542294979095459 0.0548592992126941681 95 173 78 225 31
5.4569401741027832 1.74034106731414795 0.0553740374743938446 95 173 78 225 31
5.5060882568359375 1.7482750415802002 0.0265182293951511383 95 173 78 225 31
5.41314506530761719 2.17580032348632812 0.0401445664465427399 95 173 78 225 31
5.36672163009643555 2.17229104042053223 0.0430924594402313232 95 173 78 225 31
5.2877354621887207 2.19611096382141113 0.0530381016433238983 95 173 78 225 31
5.30063962936401367 2.14741134643554688 0.0514504611492156982 95 173 78 225 31
5.31406497955322266 2.22537970542907715 0.050336834043264389 95 173 78 225 31
5.37194156646728516 2.08667445182800293 0.0473026745021343231 95 173 78 225 31
5.38981246948242188 2.47669458389282227 0.0394299700856208801 95 173 78 225 31
5.34525966644287109 2.49906587600708008 0.0414950102567672729 95 173 78 225 31
5.41581869125366211 2.49103546142578125 0.0425562374293804169 95 173 78 225 31
5.51180124282836914 1.91528224945068359 0.0279882438480854034 95 173 78 225 31
5.48594903945922852 1.9841536283493042 0.03013608418405056 95 173 78 225 31
5.46195077896118164 1.9239356517791748 0.0321152955293655396 95 173 78 225 31
5.44862127304077148 1.8927764892578125 0.0400184318423271179 95 173 78 225 31
5.28685760498046875 2.29096603393554688 0.0551126599311828613 95 173 78 225 31
5.3216710090637207 2.27695298194885254 0.0442899130284786224 95 173 78 225 31
5.30564737319946289 2.31668472290039062 0.0430589020252227783 95 173 78 225 31
5.32944488525390625 2.03286457061767578 0.0543149150907993317 95 173 78 225 31
5.35101938247680664 2.00090718269348145 0.0542674139142036438 95 173 78 225 31
5.47834300994873047 2.48438215255737305 0.0668141096830368042 95 173 78 225 31
5.44006729125976562 2.50690245628356934 0.0504231639206409454 95 173 78 225 31
5.41924095153808594 1.788826584815979 0.0519074685871601105 95 173 78 225 31
5.40155744552612305 1.84051191806793213 0.0501154735684394836 95 173 78 225 31
5.28003120422363281 2.51397895812988281 0.0417264364659786224 95 173 78 225 31
5.31986570358276367 2.49453544616699219 0.0403688885271549225 95 173 78 225 31
5.3834834098815918 1.86598145961761475 0.0537745468318462372 95 173 78 225 31
5.44690799713134766 1.85622620582580566 0.0477440468966960907 95 173 78 225 31
5.45154237747192383 2.33082079887390137 0.0377593785524368286 95 173 78 225 31
5.4755854606628418 2.34697103500366211 0.0388738401234149933 95 173 78 225 31
5.49059963226318359 2.34966659545898438 0.0313014164566993713 95 173 78 225 31
5.48596620559692383 2.36155939102172852 0.04628787562251091 95 173 78 225 31
5.26195669174194336 2.21621823310852051 0.0569989345967769623 95 173 78 225 31
5.32504558563232422 2.42702007293701172 0.0408038273453712463 95 173 78 225 31
5.42737197875976562 1.81162083148956299 0.0472046136856079102 95 173 78 225 31
5.48662233352661133 1.82163989543914795 0.0244040936231613159 95 173 78 225 31
5.49269008636474609 1.77439606189727783 0.0298446472734212875 95 173 78 225 31
5.47216653823852539 1.79325723648071289 0.0428206175565719604 95 173 78 225 31
5.50787067413330078 2.11565804481506348 0.0400429032742977142 95 173 78 225 31
5.47737026214599609 2.12694740295410156 0.0345055386424064636 95 173 78 225 31
5.43127775192260742 2.57165789604187012 0.0448439605534076691 95 173 78 225 31
5.39929628372192383 2.53706979751586914 0.0387858226895332336 95 173 78 225 31
5.36913728713989258 2.58177971839904785 0.0409844629466533661 95 173 78 225 31
5.40297508239746094 2.61066603660583496 0.0474605746567249298 95 173 78 225 31
5.44681644439697266 2.60748600959777832 0.0672609508037567139 95 173 78 225 31
5.48351478576660156 2.7226872444152832 0.0944979563355445862 95 173 78 225 31
5.47658157348632812 2.64511895179748535 0.0830798596143722534 95 173 78 225 31
5.43292951583862305 2.78740191459655762 0.099875129759311676 95 173 78 225 31
5.43489217758178711 2.67100358009338379 0.076154954731464386 95 173 78 225 31
5.33034467697143555 2.60717153549194336 0.0415409095585346222 95 173 78 225 31
5.40188884735107422 2.65278720855712891 0.0531878210604190826 95 173 78 225 31
5.38750028610229492 2.70456576347351074 0.0447681881487369537 95 173 78 225 31
5.4120182991027832 2.66623187065124512 0.0644978359341621399 95 173 78 225 31
5.37415790557861328 2.62024164199829102 0.0409033894538879395 95 173 78 225 31
5.37993335723876953 2.72116518020629883 0.052826516330242157 95 173 78 225 31
5.38252782821655273 2.75463747978210449 0.0593126416206359863 95 173 78 225 31
5.39643669128417969 2.79930734634399414 0.0803928375244140625 95 173 78 225 31
5.41331052780151367 2.75190591812133789 0.0835982337594032288 95 173 78 225 31
5.32007694244384766 2.64517736434936523 0.0386284813284873962 95 173 78 225 31
5.38607597351074219 2.79524946212768555 0.0495690852403640747 95 173 78 225 31
5.40309667587280273 2.83175444602966309 0.0586308315396308899 95 173 78 225 31
5.45053911209106445 2.87416934967041016 0.0558046884834766388 95 173 78 225 31
5.27085018157958984 2.5763554573059082 0.0385350175201892853 95 173 78 225 31
5.47054243087768555 2.55981683731079102 0.0733357742428779602 95 173 78 225 31
5.46686935424804688 2.82609224319458008 0.115693360567092896 95 173 78 225 31
5.43500661849975586 2.83238983154296875 0.102793879806995392 95 173 78 225 31
5.48244857788085938 2.86774301528930664 0.0970775634050369263 95 173 78 225 31
5.48728370666503906 2.84610509872436523 0.115249224007129669 95 173 78 225 31
5.48753786087036133 2.89258766174316406 0.0553031302988529205 95 173 78 225 31
5.69911289215087891 1.46757280826568604 0.0024663733784109354 95 173 78 225 31
5.66222763061523438 1.50481164455413818 0.00190198549535125494 95 173 78 225 31
5.61548376083374023 1.42971551418304443 0.0255578421056270599 95 173 78 225 31
5.64703702926635742 1.44637143611907959 0.00289006740786135197 95 173 78 225 31
5.61764907836914062 1.46335303783416748 0.0092247743159532547 95 173 78 225 31
5.63892555236816406 1.5035862922668457 0.00431406497955322266 95 173 78 225 31
5.60096025466918945 1.48054826259613037 0.0242860931903123856 95 173 78 225 31
5.61240339279174805 2.38312530517578125 0.1011849045753479 95 173 78 225 31
5.59016180038452148 2.43464159965515137 0.111892297863960266 95 173 78 225 31
5.65203285217285156 2.40020298957824707 0.108417890965938568 95 173 78 225 31
5.6654973030090332 2.49741911888122559 0.135025516152381897 95 173 78 225 31
5.67522335052490234 2.44133687019348145 0.121792413294315338 95 173 78 225 31
5.52372837066650391 2.15581035614013672 0.0388914532959461212 95 173 78 225 31
5.5076899528503418 2.1843714714050293 0.0367692820727825165 95 173 78 225 31
5.53892087936401367 1.68842601776123047 0.0203611217439174652 95 173 78 225 31
5.54768657684326172 1.73771333694458008 0.0183285549283027649 95 173 78 225 31
5.5532383918762207 2.35588264465332031 0.074655681848526001 95 173 78 225 31
5.56197690963745117 2.31593179702758789 0.0401855260133743286 95 173 78 225 31
5.49630546569824219 2.37047863006591797 0.0330312028527259827 95 173 78 225 31
5.52379894256591797 2.37207603454589844 0.0636207088828086853 95 173 78 225 31
5.56754779815673828 2.33509731292724609 0.055922042578458786 95 173 78 225 31
5.71820592880249023 1.59869277477264404 0.0234452970325946808 95 173 78 225 31
5.69483804702758789 1.63677847385406494 0.019514942541718483 95 173 78 225 31
5.61527442932128906 2.35883736610412598 0.0999644771218299866 95 173 78 225 31
5.73627519607543945 1.50876319408416748 -0.000398746866267174482 95 173 78 225 31
5.68619585037231445 1.84364020824432373 0.0202097278088331223 95 173 78 225 31
5.72140741348266602 1.83034801483154297 0.0302112828940153122 95 173 78 225 31
5.61187458038330078 1.93566703796386719 0.019736655056476593 95 173 78 225 31
5.6404423713684082 1.9488525390625 0.0177802722901105881 95 173 78 225 31
5.630157470703125 2.01286220550537109 0.0243373159319162369 95 173 78 225 31
5.65427875518798828 1.94315779209136963 0.0216713342815637589 95 173 78 225 31
5.57455587387084961 2.32794380187988281 0.0764659419655799866 95 173 78 225 31
5.87492799758911133 1.5826038122177124 0.0109133515506982803 95 173 78 225 31
5.85934877395629883 1.52995097637176514 0.00384808634407818317 95 173 78 225 31
5.89514017105102539 1.55451416969299316 0.0106894029304385185 95 173 78 225 31
5.58006572723388672 1.96141505241394043 0.0190038736909627914 95 173 78 225 31
5.53749990463256836 1.96624994277954102 0.0242171008139848709 95 173 78 225 31
5.56750011444091797 1.92374992370605469 0.0215707328170537949 95 173 78 225 31
5.49850988388061523 2.02941083908081055 0.0342687405645847321 95 173 78 225 31
5.60044765472412109 1.54254984855651855 0.020871628075838089 95 173 78 225 31
5.59465837478637695 1.51694369316101074 0.0259691495448350906 95 173 78 225 31
5.5825347900390625 1.55422735214233398 0.0362706594169139862 95 173 78 225 31
5.57190656661987305 1.57564687728881836 0.0497899167239665985 95 173 78 225 31
5.57755231857299805 1.67648768424987793 0.0184262879192829132 95 173 78 225 31
5.54271125793457031 1.63312482833862305 0.049430403858423233 95 173 78 225 31
5.5522613525390625 1.64530086517333984 0.0264268498867750168 95 173 78 225 31
5.57895088195800781 1.59500300884246826 0.0319912508130073547 95 173 78 225 31
5.57751846313476562 1.62567245960235596 0.0253399256616830826 95 173 78 225 31
5.5562739372253418 1.61936163902282715 0.048981592059135437 95 173 78 225 31
5.53081989288330078 1.66935980319976807 0.0289076138287782669 95 173 78 225 31
5.49680662155151367 2.30266690254211426 0.0333734527230262756 95 173 78 225 31
5.57974529266357422 2.29842209815979004 0.0486185066401958466 95 173 78 225 31
5.56021690368652344 2.2934119701385498 0.0586443543434143066 95 173 78 225 31
5.53587245941162109 2.25850534439086914 0.0351142995059490204 95 173 78 225 31
5.52279901504516602 2.24085164070129395 0.0479809939861297607 95 173 78 225 31
5.54348897933959961 2.26136231422424316 0.0475237183272838593 95 173 78 225 31
5.57308435440063477 2.2715144157409668 0.0454735718667507172 95 173 78 225 31
5.57226753234863281 2.22930240631103516 0.0237430501729249954 95 173 78 225 31
5.56785249710083008 2.31896638870239258 0.0665172338485717773 95 173 78 225 31
5.53854656219482422 2.26264023780822754 0.0249228738248348236 95 173 78 225 31
5.51840734481811523 2.3168480396270752 0.0257461052387952805 95 173 78 225 31
5.55237340927124023 2.29472589492797852 0.0283844359219074249 95 173 78 225 31
5.49537515640258789 2.07124686241149902 0.0373870395123958588 95 173 78 225 31
5.51288461685180664 1.70500862598419189 0.0312997326254844666 95 173 78 225 31
5.71915721893310547 2.39482760429382324 0.117440029978752136 95 173 78 225 31
5.79144525527954102 1.64009785652160645 0.0143454344943165779 95 173 78 225 31
5.80271625518798828 1.68545269966125488 0.0217608455568552017 95 173 78 225 31
5.83383369445800781 1.64795136451721191 0.0196047369390726089 95 173 78 225 31
5.53887224197387695 2.46172618865966797 0.106823712587356567 95 173 78 225 31
5.51172637939453125 2.43982911109924316 0.0897073745727539062 95 173 78 225 31
5.53845882415771484 2.39096832275390625 0.0872850418090820312 95 173 78 225 31
5.58192253112792969 2.36179828643798828 0.0868580490350723267 95 173 78 225 31
5.82997274398803711 1.50534093379974365 0.000478276924695819616 95 173 78 225 31
5.79905319213867188 1.56334078311920166 0.00652923434972763062 95 173 78 225 31
5.81796169281005859 1.53861284255981445 -0.000584567838814109564 95 173 78 225 31
5.83810281753540039 1.60174798965454102 0.0114858569577336311 95 173 78 225 31
5.61815881729125977 1.56650161743164062 0.0136462971568107605 95 173 78 225 31
5.69515228271484375 2.35990285873413086 0.10668056458234787 95 173 78 225 31
5.66159200668334961 1.77615904808044434 0.0297611933201551437 95 173 78 225 31
5.6361842155456543 1.80055594444274902 0.0216667484492063522 95 173 78 225 31
5.65376758575439453 1.81258976459503174 0.0242746621370315552 95 173 78 225 31
5.61838006973266602 1.99452018737792969 0.0201005320996046066 95 173 78 225 31
5.53416585922241211 2.11390972137451172 0.032019447535276413 95 173 78 225 31
5.57885074615478516 2.16850399971008301 0.025356760248541832 95 173 78 225 31
5.54415988922119141 2.04552936553955078 0.0236381366848945618 95 173 78 225 31
5.55852556228637695 2.10000729560852051 0.0220726411789655685 95 173 78 225 31
5.60953760147094727 2.07248902320861816 0.021893596276640892 95 173 78 225 31
5.53682088851928711 2.22285056114196777 0.034507259726524353 95 173 78 225 31
5.5626378059387207 2.19477295875549316 0.0374405570328235626 95 173 78 225 31
5.71954965591430664 1.57303404808044434 0.0117555772885680199 95 173 78 225 31
5.69244956970214844 1.61288022994995117 0.012483612634241581 95 173 78 225 31
5.5360565185546875 1.7991558313369751 0.0213135816156864166 95 173 78 225 31
5.59289884567260742 1.79775762557983398 0.019758736714720726 95 173 78 225 31
5.51196670532226562 1.7868877649307251 0.0242770127952098846 95 173 78 225 31
5.58362102508544922 1.72947502136230469 0.0142615297809243202 95 173 78 225 31
5.5446929931640625 1.86004829406738281 0.0220005251467227936 95 173 78 225 31
5.61427545547485352 1.84663176536560059 0.0203040242195129395 95 173 78 225 31
5.68081808090209961 1.78856384754180908 0.0418176800012588501 95 173 78 225 31
5.73361444473266602 1.75992202758789062 0.0208638664335012436 95 173 78 225 31
5.73809099197387695 1.7912973165512085 0.0264305286109447479 95 173 78 225 31
5.68757820129394531 1.82592475414276123 0.0229897499084472656 95 173 78 225 31
5.60753536224365234 1.63369011878967285 0.0162504203617572784 95 173 78 225 31
5.62800455093383789 1.67269694805145264 0.0157241784036159515 95 173 78 225 31
5.6409754753112793 1.59066367149353027 0.012242782860994339 95 173 78 225 31
5.62489557266235352 2.47754216194152832 0.121775515377521515 95 173 78 225 31
5.66430139541625977 2.5460970401763916 0.128701657056808472 95 173 78 225 31
5.62973833084106445 2.51341795921325684 0.121777474880218506 95 173 78 225 31
5.63503503799438477 1.84747684001922607 0.0190541967749595642 95 173 78 225 31
5.6664586067199707 1.89943039417266846 0.0171389076858758926 95 173 78 225 31
5.67624330520629883 1.75087475776672363 0.045125424861907959 95 173 78 225 31
5.76289129257202148 1.70523226261138916 0.0205540172755718231 95 173 78 225 31
5.6949458122253418 1.66239142417907715 0.033741440623998642 95 173 78 225 31
5.68410825729370117 1.7633286714553833 0.0725100040435791016 95 173 78 225 31
5.77039289474487305 1.66908514499664307 0.0188799723982810974 95 173 78 225 31
5.78487300872802734 1.71875190734863281 0.0249884910881519318 95 173 78 225 31
5.75888156890869141 1.75925076007843018 0.0240618996322154999 95 173 78 225 31
5.56287384033203125 2.47805213928222656 0.114761300384998322 95 173 78 225 31
5.57174015045166016 2.51236534118652344 0.107795201241970062 95 173 78 225 31
5.5575108528137207 2.5333409309387207 0.100551187992095947 95 173 78 225 31
5.51016950607299805 2.50669384002685547 0.0904325321316719055 95 173 78 225 31
5.61922121047973633 2.54650616645812988 0.101798146963119507 95 173 78 225 31
5.66431188583374023 1.68751609325408936 0.0170075483620166779 95 173 78 225 31
5.65167903900146484 1.71657049655914307 0.0171619411557912827 95 173 78 225 31
5.66907358169555664 1.71210920810699463 0.0233693215996026993 95 173 78 225 31
5.61457443237304688 2.6613609790802002 0.0918264612555503845 95 173 78 225 31
5.64025688171386719 2.66836428642272949 0.0805666074156761169 95 173 78 225 31
5.50412988662719727 2.63921308517456055 0.0932757407426834106 95 173 78 225 31
5.52126121520996094 2.54926204681396484 0.0883985981345176697 95 173 78 225 31
5.62355756759643555 2.57547402381896973 0.0970805138349533081 95 173 78 225 31
5.6478571891784668 2.61816000938415527 0.0886082500219345093 95 173 78 225 31
5.66876602172851562 2.64325046539306641 0.0785328000783920288 95 173 78 225 31
5.54579591751098633 2.91925549507141113 0.0441277213394641876 95 173 78 225 31
5.6210784912109375 2.84732270240783691 0.107416398823261261 95 173 78 225 31
5.59713459014892578 2.83223962783813477 0.111158296465873718 95 173 78 225 31
5.57597970962524414 2.64974379539489746 0.104401975870132446 95 173 78 225 31
5.55995702743530273 2.62531733512878418 0.101938866078853607 95 173 78 225 31
5.53338241577148438 2.70809435844421387 0.107332691550254822 95 173 78 225 31
5.57371950149536133 2.7982172966003418 0.114081442356109619 95 173 78 225 31
5.54398632049560547 2.84104824066162109 0.123686887323856354 95 173 78 225 31
5.5210723876953125 2.88373303413391113 0.101339548826217651 95 173 78 225 31
5.54715442657470703 2.91071295738220215 0.0881853699684143066 95 173 78 225 31
5.54698610305786133 2.88379788398742676 0.107487380504608154 95 173 78 225 31
5.58049440383911133 2.89071750640869141 0.106776304543018341 95 173 78 225 31
5.588836669921875 2.73456048965454102 0.0985568985342979431 95 173 78 225 31
5.63904619216918945 2.73506402969360352 0.0811261460185050964 95 173 78 225 31
5.6748504638671875 2.73459982872009277 0.0773633569478988647 95 173 78 225 31
5.61762762069702148 2.7722010612487793 0.093468986451625824 95 173 78 225 31
5.67312288284301758 2.57932043075561523 0.108896389603614807 95 173 78 225 31
5.55059576034545898 2.73991990089416504 0.108634375035762787 95 173 78 225 31
5.52880048751831055 2.74465036392211914 0.109372466802597046 95 173 78 225 31
5.53860902786254883 2.81063532829284668 0.123429298400878906 95 173 78 225 31
5.18108844757080078 2.50487542152404785 0.0474507734179496765 95 173 78 225 31
5.00826120376586914 2.53083634376525879 0.0631366819143295288 95 173 78 225 31
5.25318670272827148 2.50939536094665527 0.0429647117853164673 95 173 78 225 31
5.19720315933227539 2.52750754356384277 0.048770509660243988 95 173 78 225 31
5.2415776252746582 2.31206917762756348 0.0531826689839363098 95 173 78 225 31
5.26050758361816406 2.26482915878295898 0.0555405616760253906 95 173 78 225 31
5.18868064880371094 2.46055960655212402 0.0492498874664306641 95 173 78 225 31
5.29776477813720703 2.3685915470123291 0.0448254421353340149 95 173 78 225 31
5.25332546234130859 2.46362948417663574 0.04359469935297966 95 173 78 225 31
5.26575326919555664 2.4175560474395752 0.0451289042830467224 95 173 78 225 31
5.22679901123046875 2.45150923728942871 0.0495890676975250244 95 173 78 225 31
5.21860837936401367 2.39779305458068848 0.0536916181445121765 95 173 78 225 31
5.25065374374389648 2.38738703727722168 0.0531347766518592834 95 173 78 225 31
5.01985597610473633 2.68761324882507324 0.0477544330060482025 95 173 78 225 31
5.05480432510375977 2.63093423843383789 0.0550361312925815582 95 173 78 225 31
5.07376384735107422 2.6773674488067627 0.046258438378572464 95 173 78 225 31
5.11044645309448242 2.81762218475341797 0.0633639991283416748 95 173 78 225 31
5.02132129669189453 2.80073189735412598 0.102213799953460693 95 173 78 225 31
4.98624658584594727 2.75284457206726074 0.0844108909368515015 95 173 78 225 31
5.02799701690673828 2.81366848945617676 0.0712786093354225159 95 173 78 225 31
5.057464599609375 2.8634793758392334 0.0848944410681724548 95 173 78 225 31
5.08554744720458984 2.84853625297546387 0.059702116996049881 95 173 78 225 31
5.01549339294433594 2.80417513847351074 0.0723185837268829346 95 173 78 225 31
5.0032196044921875 2.8211369514465332 0.0655670762062072754 95 173 78 225 31
4.96110773086547852 2.71511459350585938 0.0597816072404384613 95 173 78 225 31
4.97561740875244141 2.66668987274169922 0.0531779378652572632 95 173 78 225 31
5.0608978271484375 2.58217191696166992 0.0549976751208305359 95 173 78 225 31
5.00915145874023438 2.58188271522521973 0.0538236349821090698 95 173 78 225 31
5.10004997253417969 2.65661048889160156 0.0511565543711185455 95 173 78 225 31
5.21976900100708008 2.54562020301818848 0.0424933433532714844 95 173 78 225 31
4.94146490097045898 2.67990398406982422 0.0578178390860557556 95 173 78 225 31
4.96215009689331055 2.62236213684082031 0.0574040673673152924 95 173 78 225 31
5.12019443511962891 2.76297831535339355 0.048220023512840271 95 173 78 225 31
5.10566377639770508 2.5875403881072998 0.0542873144149780273 95 173 78 225 31
5.12590885162353516 2.61121249198913574 0.049456518143415451 95 173 78 225 31
5.17713689804077148 2.59417104721069336 0.0526624657213687897 95 173 78 225 31
5.20824337005615234 2.61109089851379395 0.0445801392197608948 95 173 78 225 31
5.14825963973999023 2.66565561294555664 0.0491399616003036499 95 173 78 225 31
5.14811563491821289 2.57475972175598145 0.0504248142242431641 95 173 78 225 31
5.01634359359741211 2.73271679878234863 0.0502578206360340118 95 173 78 225 31
5.00191593170166016 2.76212930679321289 0.0661260783672332764 95 173 78 225 31
5.03513097763061523 2.78803420066833496 0.0525532737374305725 95 173 78 225 31
4.98556947708129883 2.57019734382629395 0.0575427189469337463 95 173 78 225 31
5.01247549057006836 2.63415956497192383 0.0563752278685569763 95 173 78 225 31
5.07344961166381836 2.79731869697570801 0.046693556010723114 95 173 78 225 31
5.09586238861083984 2.76841640472412109 0.047137189656496048 95 173 78 225 31
5.16583871841430664 2.76358652114868164 0.0405388101935386658 95 173 78 225 31
5.1600341796875 2.6861567497253418 0.0465897582471370697 95 173 78 225 31
5.1374354362487793 2.6926882266998291 0.0506673902273178101 95 173 78 225 31
5.18812131881713867 2.66516828536987305 0.0429197996854782104 95 173 78 225 31
