ply
format ascii 1.0
element vertex 301
property float x
property float y
property float z
property uchar red
property uchar green
property uchar blue
property uchar alpha
property uint label
end_header
6.1354823112487793 6.97225618362426758 2.03863906860351562 213 255 0 249 7
6.14599704742431641 6.9960331916809082 2.02228713035583496 213 255 0 249 7
6.13279104232788086 6.96420764923095703 2.0833137035369873 213 255 0 249 7
6.11794853210449219 6.91136503219604492 2.16638588905334473 213 255 0 249 7
6.11458969116210938 6.92224311828613281 2.20619726181030273 213 255 0 249 7
6.12841129302978516 6.96015214920043945 2.23305034637451172 213 255 0 249 7
6.15631246566772461 6.99460220336914062 1.90911459922790527 213 255 0 249 7
6.15536880493164062 6.99156332015991211 1.95310807228088379 213 255 0 249 7
6.16442346572875977 6.96656703948974609 1.97119545936584473 213 255 0 249 7
6.13493108749389648 6.97816610336303711 1.8694298267364502 213 255 0 249 7
6.1448054313659668 6.99469280242919922 1.90504062175750732 213 255 0 249 7
6.14523887634277344 6.97102212905883789 1.85067391395568848 213 255 0 249 7
6.12359476089477539 6.95113229751586914 1.90536868572235107 213 255 0 249 7
6.13186073303222656 6.97104835510253906 1.91949951648712158 213 255 0 249 7
6.13089942932128906 6.96562290191650391 1.96505403518676758 213 255 0 249 7
6.14552116394042969 6.99396562576293945 1.95066523551940918 213 255 0 249 7
6.15566349029541016 6.99654102325439453 2.03381872177124023 213 255 0 249 7
6.1730961799621582 6.96397113800048828 2.07882189750671387 213 255 0 249 7
6.16946029663085938 6.9654998779296875 2.01373887062072754 213 255 0 249 7
6.11149454116821289 6.89310407638549805 2.15409421920776367 213 255 0 249 7
6.10974502563476562 6.90503406524658203 2.04722213745117188 213 255 0 249 7
6.1230778694152832 6.93738746643066406 2.0407567024230957 213 255 0 249 7
6.12832403182983398 6.9448699951171875 2.10443282127380371 213 255 0 249 7
6.14442157745361328 6.98786401748657227 2.09067082405090332 213 255 0 249 7
6.14513397216796875 6.9946436882019043 2.14372634887695312 213 255 0 249 7
6.12939977645874023 6.95938777923583984 2.16010761260986328 213 255 0 249 7
6.14548254013061523 6.99698019027709961 2.2292635440826416 213 255 0 249 7
6.15684032440185547 7.00200653076171875 2.21707010269165039 213 255 0 249 7
6.11475944519042969 6.92023468017578125 2.02941775321960449 213 255 0 249 7
6.12020111083984375 6.93634891510009766 1.96274709701538086 213 255 0 249 7
6.10494422912597656 6.90448236465454102 1.96073734760284424 213 255 0 249 7
6.15455293655395508 7.00391054153442383 2.25488448143005371 213 255 0 249 7
6.17280817031860352 6.96287870407104492 2.14354324340820312 213 255 0 249 7
6.15515756607055664 6.9918975830078125 2.08546304702758789 213 255 0 249 7
6.12290573120117188 6.9528813362121582 1.85427582263946533 213 255 0 249 7
6.12200450897216797 6.95183515548706055 1.83656775951385498 213 255 0 249 7
6.10146188735961914 6.91202783584594727 1.85754275321960449 213 255 0 249 7
6.11429929733276367 6.93036365509033203 1.90660583972930908 213 255 0 249 7
6.10120534896850586 6.8825230598449707 1.87925231456756592 213 255 0 249 7
6.10334539413452148 6.90758275985717773 1.88709759712219238 213 255 0 249 7
6.16500759124755859 6.98465442657470703 2.17747092247009277 213 255 0 249 7
6.1563572883605957 6.99757814407348633 2.16219568252563477 213 255 0 249 7
6.16778564453125 6.98729705810546875 2.25515937805175781 213 255 0 249 7
6.17115592956542969 6.96913480758666992 2.21639180183410645 213 255 0 249 7
6.17003059387207031 6.96532964706420898 1.93242120742797852 213 255 0 249 7
6.15784454345703125 6.96497011184692383 1.86539208889007568 213 255 0 249 7
6.11909961700439453 6.95178842544555664 2.23984193801879883 213 255 0 249 7
6.35469245910644531 6.22506904602050781 2.10094380378723145 213 255 0 249 7
6.34637928009033203 6.26749992370605469 2.10812497138977051 213 255 0 249 7
6.35433197021484375 6.18448877334594727 1.79137504100799561 213 255 0 249 7
6.36616182327270508 6.17482233047485352 1.82207238674163818 213 255 0 249 7
6.35610055923461914 6.199249267578125 1.83667171001434326 213 255 0 249 7
6.34670639038085938 6.25749301910400391 1.88603830337524414 213 255 0 249 7
6.33396625518798828 6.28969860076904297 1.89682614803314209 213 255 0 249 7
6.24642658233642578 6.50877094268798828 2.04240608215332031 213 255 0 249 7
6.23892402648925781 6.53703451156616211 2.02254343032836914 213 255 0 249 7
6.23918867111206055 6.54091644287109375 2.09511923789978027 213 255 0 249 7
6.24223613739013672 6.54052639007568359 2.14243841171264648 213 255 0 249 7
6.27468395233154297 6.44890165328979492 1.89874053001403809 213 255 0 249 7
6.25626850128173828 6.4774932861328125 1.9572446346282959 213 255 0 249 7
6.28118610382080078 6.43610239028930664 1.97578120231628418 213 255 0 249 7
6.3154606819152832 6.35063314437866211 2.18406248092651367 213 255 0 249 7
6.37207412719726562 6.17289257049560547 1.84996485710144043 213 255 0 249 7
6.35209941864013672 6.22077083587646484 1.89138352870941162 213 255 0 249 7
6.35513687133789062 6.21883010864257812 2.18042778968811035 213 255 0 249 7
6.37270545959472656 6.17595338821411133 2.24804043769836426 213 255 0 249 7
6.35380792617797852 6.22582721710205078 2.23155832290649414 213 255 0 249 7
6.26174688339233398 6.47563362121582031 2.14165067672729492 213 255 0 249 7
6.27813053131103516 6.45206975936889648 2.1551361083984375 213 255 0 249 7
6.27693271636962891 6.44977569580078125 2.08624982833862305 213 255 0 249 7
6.2991790771484375 6.39772701263427734 2.13843727111816406 213 255 0 249 7
6.31272315979003906 6.34105300903320312 2.24374985694885254 213 255 0 249 7
6.28343963623046875 6.41722393035888672 2.27338910102844238 213 255 0 249 7
6.34642267227172852 6.1926727294921875 2.3185570240020752 213 255 0 249 7
6.3152623176574707 6.22831583023071289 2.34763121604919434 213 255 0 249 7
6.32503032684326172 6.18058967590332031 2.35381197929382324 213 255 0 249 7
6.36358737945556641 6.15192842483520508 2.3107907772064209 213 255 0 249 7
6.29562139511108398 6.3925175666809082 2.23124980926513672 213 255 0 249 7
6.26496791839599609 6.46997308731079102 2.2450401782989502 213 255 0 249 7
6.29450654983520508 6.38636112213134766 1.88163769245147705 213 255 0 249 7
6.30592727661132812 6.34716701507568359 1.8945077657699585 213 255 0 249 7
6.25215864181518555 6.48034048080444336 1.85728561878204346 213 255 0 249 7
6.30468511581420898 6.37911176681518555 1.9197227954864502 213 255 0 249 7
6.26087379455566406 6.47696161270141602 2.20006489753723145 213 255 0 249 7
6.24960851669311523 6.51640033721923828 2.23748922348022461 213 255 0 249 7
6.24845409393310547 6.50999975204467773 2.13937473297119141 213 255 0 249 7
6.28320217132568359 6.43383455276489258 2.21592903137207031 213 255 0 249 7
6.23596000671386719 6.542816162109375 1.97066903114318848 213 255 0 249 7
6.25018072128295898 6.49354028701782227 1.99147021770477295 213 255 0 249 7
6.25448465347290039 6.47405338287353516 1.90567898750305176 213 255 0 249 7
6.37303400039672852 6.17254066467285156 1.92089712619781494 213 255 0 249 7
6.35658836364746094 6.21499967575073242 1.95812487602233887 213 255 0 249 7
6.37249994277954102 6.17999982833862305 2.16499996185302734 213 255 0 249 7
6.31087779998779297 6.36267471313476562 1.9823906421661377 213 255 0 249 7
6.28145408630371094 6.4359135627746582 2.03937482833862305 213 255 0 249 7
6.26211833953857422 6.46950054168701172 2.03531241416931152 213 255 0 249 7
6.33827495574951172 6.29500007629394531 2.09749984741210938 213 255 0 249 7
6.348663330078125 6.2590031623840332 2.18843245506286621 213 255 0 249 7
6.32085800170898438 6.33322048187255859 1.93538713455200195 213 255 0 249 7
6.35052776336669922 6.25249958038330078 1.96749997138977051 213 255 0 249 7
6.34354925155639648 6.27500009536743164 1.93999993801116943 213 255 0 249 7
6.33217191696166992 6.30924034118652344 2.15124988555908203 213 255 0 249 7
6.2484283447265625 6.51517295837402344 2.2754676342010498 213 255 0 249 7
6.35170078277587891 6.25431919097900391 2.0461885929107666 213 255 0 249 7
6.36899423599243164 6.18713521957397461 2.05607843399047852 213 255 0 249 7
6.37344598770141602 6.17488908767700195 1.97853553295135498 213 255 0 249 7
6.37539768218994141 6.17525768280029297 2.08821535110473633 213 255 0 249 7
6.35884428024291992 6.21065092086791992 2.04990029335021973 213 255 0 249 7
6.33421993255615234 6.30499982833862305 2.01125001907348633 213 255 0 249 7
6.28399944305419922 6.27906990051269531 2.35978555679321289 213 255 0 249 7
6.24576234817504883 6.50020742416381836 1.88060235977172852 213 255 0 249 7
6.22607994079589844 6.55682754516601562 1.90416872501373291 213 255 0 249 7
6.23625278472900391 6.53828716278076172 1.90111184120178223 213 255 0 249 7
6.22598171234130859 6.54799127578735352 1.87530338764190674 213 255 0 249 7
6.34687519073486328 6.24046802520751953 2.2696681022644043 213 255 0 249 7
6.34369897842407227 6.23586177825927734 2.29007339477539062 213 255 0 249 7
6.33401298522949219 6.28897476196289062 2.23832130432128906 213 255 0 249 7
6.31289386749267578 6.332977294921875 2.27759957313537598 213 255 0 249 7
6.35234212875366211 6.11028099060058594 2.3580319881439209 213 255 0 249 7
6.30311965942382812 6.38631916046142578 2.04328107833862305 213 255 0 249 7
6.36894369125366211 6.17526960372924805 2.27736020088195801 213 255 0 249 7
6.3496546745300293 6.2124476432800293 2.2913362979888916 213 255 0 249 7
6.23147201538085938 6.56170558929443359 2.15966653823852539 213 255 0 249 7
6.17042255401611328 6.73777866363525391 2.01749992370605469 213 255 0 249 7
6.19075202941894531 6.67622709274291992 1.90500926971435547 213 255 0 249 7
6.1992487907409668 6.63440799713134766 1.87212300300598145 213 255 0 249 7
6.1830449104309082 6.68593025207519531 1.88027405738830566 213 255 0 249 7
6.1557159423828125 6.77687454223632812 1.99312496185302734 213 255 0 249 7
6.13794040679931641 6.8291935920715332 2.0233454704284668 213 255 0 249 7
6.11038589477539062 6.88499975204467773 2.05749988555908203 213 255 0 249 7
6.12148952484130859 6.85331821441650391 1.99529218673706055 213 255 0 249 7
6.15655040740966797 6.78547096252441406 2.04349303245544434 213 255 0 249 7
6.18760824203491211 6.6866302490234375 2.21877026557922363 213 255 0 249 7
6.2091212272644043 6.64141225814819336 2.20442485809326172 213 255 0 249 7
6.09257698059082031 6.97118711471557617 2.34480667114257812 213 255 0 249 7
6.17069244384765625 6.74317550659179688 2.15374994277954102 213 255 0 249 7
6.15928983688354492 6.77533912658691406 2.11031246185302734 213 255 0 249 7
6.06138515472412109 6.97780227661132812 2.38774633407592773 213 255 0 249 7
6.064056396484375 6.99793624877929688 2.40529203414916992 213 255 0 249 7
6.13662528991699219 6.83500003814697266 2.1249997615814209 213 255 0 249 7
6.13083171844482422 6.84012413024902344 2.07578444480895996 213 255 0 249 7
6.12191581726074219 6.86091423034667969 2.13828182220458984 213 255 0 249 7
6.19670486450195312 6.66997766494750977 2.03749990463256836 213 255 0 249 7
6.17732095718383789 6.72029733657836914 2.07375001907348633 213 255 0 249 7
6.21612119674682617 6.60356426239013672 2.16493344306945801 213 255 0 249 7
6.14502620697021484 6.80056524276733398 2.30027627944946289 213 255 0 249 7
6.12574577331542969 6.85126543045043945 2.20813751220703125 213 255 0 249 7
6.13010168075561523 6.83795356750488281 2.24635815620422363 213 255 0 249 7
6.15973854064941406 6.76620960235595703 2.22374963760375977 213 255 0 249 7
6.14495563507080078 6.81903886795043945 2.18805503845214844 213 255 0 249 7
6.14593935012817383 6.80149650573730469 1.94468748569488525 213 255 0 249 7
6.17411994934082031 6.72124958038330078 1.92312502861022949 213 255 0 249 7
6.18210601806640625 6.70274543762207031 1.99499988555908203 213 255 0 249 7
6.12240982055664062 6.85475730895996094 2.30485010147094727 213 255 0 249 7
6.1116032600402832 6.88552570343017578 2.18937420845031738 213 255 0 249 7
6.10580110549926758 6.89590787887573242 2.00574564933776855 213 255 0 249 7
6.20396995544433594 6.63908004760742188 1.89921379089355469 213 255 0 249 7
6.2435002326965332 6.54196453094482422 2.27160763740539551 213 255 0 249 7
6.24050283432006836 6.54091835021972656 2.04812169075012207 213 255 0 249 7
6.20527315139770508 6.64100503921508789 2.05986499786376953 213 255 0 249 7
6.21505355834960938 6.5984044075012207 2.1301119327545166 213 255 0 249 7
6.20418453216552734 6.65111827850341797 2.17931509017944336 213 255 0 249 7
6.2155303955078125 6.59847927093505859 2.0897679328918457 213 255 0 249 7
6.20977544784545898 6.62076473236083984 2.01756715774536133 213 255 0 249 7
6.22223234176635742 6.57009267807006836 2.00704789161682129 213 255 0 249 7
6.21278524398803711 6.59732389450073242 2.04127240180969238 213 255 0 249 7
6.23745155334472656 6.55441617965698242 2.20189666748046875 213 255 0 249 7
6.21539306640625 6.60428857803344727 2.22031593322753906 213 255 0 249 7
6.22579622268676758 6.56903839111328125 2.30026030540466309 213 255 0 249 7
6.10423803329467773 6.88935518264770508 1.96401751041412354 213 255 0 249 7
6.20102119445800781 6.59572792053222656 1.86239135265350342 213 255 0 249 7
6.21264076232910156 6.59641647338867188 1.89157223701477051 213 255 0 249 7
6.14623641967773438 6.8013310432434082 2.24533438682556152 213 255 0 249 7
6.1348719596862793 6.82568931579589844 1.92827200889587402 213 255 0 249 7
6.10335874557495117 6.89179515838623047 1.91290962696075439 213 255 0 249 7
6.1215062141418457 6.84855794906616211 1.93758988380432129 213 255 0 249 7
6.22997760772705078 6.56620693206787109 2.26890444755554199 213 255 0 249 7
6.20873355865478516 6.64248180389404297 2.12995147705078125 213 255 0 249 7
6.19160699844360352 6.6875 2.1099998950958252 213 255 0 249 7
6.12098073959350586 6.85113763809204102 1.91127622127532959 213 255 0 249 7
6.08807086944580078 6.85631370544433594 1.86247134208679199 213 255 0 249 7
6.14221572875976562 6.80676746368408203 1.87333846092224121 213 255 0 249 7
6.11911821365356445 6.84692764282226562 1.8779292106628418 213 255 0 249 7
6.18430852890014648 6.70983123779296875 2.19018077850341797 213 255 0 249 7
6.16361618041992188 6.74429035186767578 2.2458343505859375 213 255 0 249 7
6.05944252014160156 6.93900012969970703 2.36350631713867188 213 255 0 249 7
6.17527961730957031 6.71808624267578125 2.23746299743652344 213 255 0 249 7
6.16342592239379883 6.74559688568115234 2.26726126670837402 213 255 0 249 7
6.21096420288085938 6.60375022888183594 1.95624995231628418 213 255 0 249 7
6.20571470260620117 6.63577938079833984 1.97379028797149658 213 255 0 249 7
6.21839094161987305 6.58003616333007812 1.95408105850219727 213 255 0 249 7
6.17178869247436523 6.72055721282958984 1.87821519374847412 213 255 0 249 7
6.20543003082275391 6.63248538970947266 2.24547147750854492 213 255 0 249 7
6.19483232498168945 6.65639448165893555 2.28288149833679199 213 255 0 249 7
6.20631265640258789 6.62646961212158203 2.29699468612670898 213 255 0 249 7
6.17728471755981445 6.69561576843261719 2.30494213104248047 213 255 0 249 7
6.10078763961791992 6.91407060623168945 2.29375624656677246 213 255 0 249 7
6.10754489898681641 6.90316486358642578 2.2373206615447998 213 255 0 249 7
6.10875034332275391 6.8951115608215332 2.30720996856689453 213 255 0 249 7
6.1020665168762207 6.92885971069335938 2.30304837226867676 213 255 0 249 7
6.11485099792480469 6.9531092643737793 2.29873967170715332 213 255 0 249 7
6.11625337600708008 6.96696949005126953 2.31248140335083008 213 255 0 249 7
6.23623752593994141 6.51981210708618164 2.3149418830871582 213 255 0 249 7
6.30433893203735352 6.34546947479248047 2.29347085952758789 213 255 0 249 7
6.1923365592956543 6.54124879837036133 2.38315248489379883 213 255 0 249 7
6.21777868270874023 6.48447227478027344 2.34862971305847168 213 255 0 249 7
6.28125762939453125 6.40330314636230469 2.3044440746307373 213 255 0 249 7
6.26845836639404297 6.43951225280761719 2.30105352401733398 213 255 0 249 7
6.24383115768432617 6.38922643661499023 2.35074543952941895 213 255 0 249 7
6.26770448684692383 6.35408973693847656 2.34155941009521484 213 255 0 249 7
6.26632785797119141 6.43033456802368164 2.31115984916687012 213 255 0 249 7
6.27312946319580078 6.37760686874389648 2.32821464538574219 213 255 0 249 7
6.30968618392944336 6.28332710266113281 2.3185579776763916 213 255 0 249 7
6.23103952407836914 6.43502378463745117 2.35474061965942383 213 255 0 249 7
6.21993398666381836 6.44583463668823242 2.36031246185302734 213 255 0 249 7
6.20706939697265625 6.49059581756591797 2.3708798885345459 213 255 0 249 7
6.23685503005981445 6.53506231307983398 2.30522966384887695 213 255 0 249 7
6.31133079528808594 6.30726432800292969 2.3086388111114502 213 255 0 249 7
6.09399223327636719 6.82956171035766602 2.38408088684082031 213 255 0 249 7
6.10462045669555664 6.86277437210083008 2.34369277954101562 213 255 0 249 7
6.12874412536621094 6.82180690765380859 2.32940030097961426 213 255 0 249 7
6.1873631477355957 6.60932588577270508 2.34653043746948242 213 255 0 249 7
6.18012762069702148 6.65976428985595703 2.3254237174987793 213 255 0 249 7
6.08183431625366211 6.8977665901184082 2.36324858665466309 213 255 0 249 7
6.07788228988647461 6.92700719833374023 2.3328549861907959 213 255 0 249 7
6.0939788818359375 6.90735101699829102 2.33491373062133789 213 255 0 249 7
6.15937566757202148 6.64385032653808594 2.3790280818939209 213 255 0 249 7
6.16044521331787109 6.67572021484375 2.34745144844055176 213 255 0 249 7
6.13487100601196289 6.70627593994140625 2.37579107284545898 213 255 0 249 7
6.13283061981201172 6.74110698699951172 2.36100888252258301 213 255 0 249 7
6.11602163314819336 6.7776641845703125 2.39029359817504883 213 255 0 249 7
6.15910148620605469 6.74330377578735352 2.30846905708312988 213 255 0 249 7
6.16029262542724609 6.71034908294677734 2.33158445358276367 213 255 0 249 7
6.13123130798339844 6.71978759765625 2.38650822639465332 213 255 0 249 7
6.11796712875366211 6.78649759292602539 2.36542272567749023 213 255 0 249 7
6.08336591720581055 6.86779069900512695 2.39118337631225586 213 255 0 249 7
6.06201696395874023 6.92616939544677734 2.38176417350769043 213 255 0 249 7
6.05373144149780273 6.95261383056640625 2.39862704277038574 213 255 0 249 7
6.17873096466064453 6.58169031143188477 2.37560296058654785 213 255 0 249 7
6.21578788757324219 6.54461288452148438 2.32919526100158691 213 255 0 249 7
6.19438028335571289 6.56688451766967773 2.35196089744567871 213 255 0 249 7
6.20691156387329102 6.59912872314453125 2.32268738746643066 213 255 0 249 7
6.16929483413696289 6.61077213287353516 2.3817591667175293 213 255 0 249 7
6.27793598175048828 6.44261598587036133 2.41074466705322266 213 255 0 249 7
6.30124568939208984 6.43174123764038086 2.41928696632385254 213 255 0 249 7
6.31634759902954102 6.21976995468139648 2.38035058975219727 213 255 0 249 7
6.33617687225341797 6.14032983779907227 2.36544156074523926 213 255 0 249 7
6.21023988723754883 6.50093412399291992 2.38263893127441406 213 255 0 249 7
6.24316835403442383 6.38368988037109375 2.36463689804077148 213 255 0 249 7
6.24825620651245117 6.39891958236694336 2.37792396545410156 213 255 0 249 7
6.31294059753417969 6.36944150924682617 2.41275763511657715 213 255 0 249 7
6.27287673950195312 6.36770963668823242 2.38813519477844238 213 255 0 249 7
6.40019941329956055 6.19496345520019531 2.40851163864135742 213 255 0 249 7
6.36771774291992188 6.19227886199951172 2.40856075286865234 213 255 0 249 7
6.33607053756713867 6.17603921890258789 2.3811485767364502 213 255 0 249 7
6.3778996467590332 6.22535896301269531 2.41820549964904785 213 255 0 249 7
6.38686609268188477 6.17711925506591797 2.41207146644592285 213 255 0 249 7
6.35253429412841797 6.26875686645507812 2.41361141204833984 213 255 0 249 7
6.33962202072143555 6.25145149230957031 2.40598964691162109 213 255 0 249 7
6.32661914825439453 6.29111003875732422 2.40575718879699707 213 255 0 249 7
6.34903860092163086 6.32191562652587891 2.41716551780700684 213 255 0 249 7
6.32826471328735352 6.34166049957275391 2.41821765899658203 213 255 0 249 7
6.22934055328369141 6.42873334884643555 2.36645269393920898 213 255 0 249 7
6.23187732696533203 6.51842546463012695 2.40164685249328613 213 255 0 249 7
6.29499435424804688 6.46076631546020508 2.41533398628234863 213 255 0 249 7
6.23084545135498047 6.46320867538452148 2.38239836692810059 213 255 0 249 7
6.26503133773803711 6.51512050628662109 2.41518259048461914 213 255 0 249 7
6.31463718414306641 6.19623661041259766 2.3651278018951416 213 255 0 249 7
6.32468414306640625 6.39085245132446289 2.4146575927734375 213 255 0 249 7
6.30324840545654297 6.26226425170898438 2.37803292274475098 213 255 0 249 7
6.30336093902587891 6.24224519729614258 2.36476826667785645 213 255 0 249 7
6.27005529403686523 6.31819295883178711 2.36112833023071289 213 255 0 249 7
6.28510046005249023 6.30518245697021484 2.37768840789794922 213 255 0 249 7
6.364013671875 6.12931585311889648 2.38345456123352051 213 255 0 249 7
6.1519012451171875 6.82710504531860352 2.4387671947479248 213 255 0 249 7
6.11975622177124023 6.92581701278686523 2.4443812370300293 213 255 0 249 7
6.10165500640869141 6.97971010208129883 2.44548940658569336 213 255 0 249 7
6.12087726593017578 6.9607391357421875 2.44683957099914551 213 255 0 249 7
6.07399463653564453 7.01105260848999023 2.43636989593505859 213 255 0 249 7
6.08919811248779297 7.02816104888916016 2.44716095924377441 213 255 0 249 7
6.21164178848266602 6.54851245880126953 2.40621042251586914 213 255 0 249 7
6.19324541091918945 6.59096193313598633 2.40336513519287109 213 255 0 249 7
6.2236018180847168 6.55984878540039062 2.41539430618286133 213 255 0 249 7
6.17447423934936523 6.72514963150024414 2.42653179168701172 213 255 0 249 7
6.13735055923461914 6.77074575424194336 2.41334414482116699 213 255 0 249 7
6.19533491134643555 6.7574615478515625 2.44381284713745117 213 255 0 249 7
6.20887899398803711 6.71413469314575195 2.43801522254943848 213 255 0 249 7
6.17450237274169922 6.78714275360107422 2.43719935417175293 213 255 0 249 7
6.09882593154907227 6.82860660552978516 2.40162014961242676 213 255 0 249 7
6.09910011291503906 6.88118410110473633 2.41773533821105957 213 255 0 249 7
6.06008243560791016 6.97297525405883789 2.4153144359588623 213 255 0 249 7
6.13519382476806641 6.94710731506347656 2.44234609603881836 213 255 0 249 7
6.13682651519775391 6.86808967590332031 2.43798947334289551 213 255 0 249 7
6.11897706985473633 6.81568622589111328 2.41071581840515137 213 255 0 249 7
6.15471458435058594 6.68263578414916992 2.39909052848815918 213 255 0 249 7
6.24120378494262695 6.57809686660766602 2.42327284812927246 213 255 0 249 7
6.2649531364440918 6.57483768463134766 2.4158174991607666 213 255 0 249 7
6.18540620803833008 6.67765522003173828 2.42185211181640625 213 255 0 249 7
6.18702936172485352 6.65403079986572266 2.41636419296264648 213 255 0 249 7
6.21251249313354492 6.67986965179443359 2.4362492561340332 213 255 0 249 7
6.16487026214599609 6.64104080200195312 2.39625763893127441 213 255 0 249 7
