ply
format ascii 1.0
element vertex 209
property float x
property float y
property float z
property uchar red
property uchar green
property uchar blue
property uchar alpha
property uint label
end_header
6.00097990036010742 1.48798108100891113 0.673589944839477539 189 211 147 222 34
6.03097438812255859 1.47762644290924072 0.684391319751739502 189 211 147 222 34
5.84821844100952148 1.42647600173950195 0.675094544887542725 189 211 147 222 34
5.80186796188354492 1.42174363136291504 0.673087537288665771 189 211 147 222 34
5.92112493515014648 1.43852531909942627 0.672943055629730225 189 211 147 222 34
5.87742471694946289 1.42585909366607666 0.674862444400787354 189 211 147 222 34
5.87749052047729492 1.4385063648223877 0.669938921928405762 189 211 147 222 34
5.98810195922851562 1.46654260158538818 0.673118174076080322 189 211 147 222 34
5.95896673202514648 1.48652684688568115 0.666488409042358398 189 211 147 222 34
5.90330171585083008 1.46617484092712402 0.666442453861236572 189 211 147 222 34
5.9439997673034668 1.45439827442169189 0.673034608364105225 189 211 147 222 34
6.09560966491699219 1.49770522117614746 0.687492012977600098 189 211 147 222 34
5.79594707489013672 1.46201980113983154 0.671583592891693115 189 211 147 222 34
5.83257150650024414 1.51645195484161377 0.672498345375061035 189 211 147 222 34
5.84381532669067383 1.46628105640411377 0.670045018196105957 189 211 147 222 34
6.15546226501464844 1.56634211540222168 0.678940355777740479 189 211 147 222 34
6.15310907363891602 1.61953020095825195 0.678271114826202393 189 211 147 222 34
6.18685293197631836 1.63093006610870361 0.677718043327331543 189 211 147 222 34
6.03104782104492188 1.61421060562133789 0.682770729064941406 189 211 147 222 34
6.05851650238037109 1.65704858303070068 0.682705163955688477 189 211 147 222 34
6.16437864303588867 1.76660823822021484 0.680781841278076172 189 211 147 222 34
6.12086057662963867 1.78391456604003906 0.688641071319580078 189 211 147 222 34
6.0392756462097168 1.5129467248916626 0.676189064979553223 189 211 147 222 34
6.07900333404541016 1.57523512840270996 0.678642630577087402 189 211 147 222 34
6.13991641998291016 1.5202174186706543 0.684240341186523438 189 211 147 222 34
6.10605812072753906 1.53860080242156982 0.679912686347961426 189 211 147 222 34
6.04210948944091797 1.54151880741119385 0.6760597825050354 189 211 147 222 34
5.92759227752685547 1.53756809234619141 0.669646203517913818 189 211 147 222 34
5.8596196174621582 1.50460195541381836 0.669320821762084961 189 211 147 222 34
5.8578038215637207 1.54494166374206543 0.673592209815979004 189 211 147 222 34
5.93097591400146484 1.80202937126159668 0.696937203407287598 189 211 147 222 34
6.11332082748413086 1.73809218406677246 0.686093389987945557 189 211 147 222 34
6.14804601669311523 1.69352161884307861 0.680428802967071533 189 211 147 222 34
6.16180849075317383 1.7210538387298584 0.683889508247375488 189 211 147 222 34
6.05291080474853516 1.73766756057739258 0.691857337951660156 189 211 147 222 34
6.09939384460449219 1.67558777332305908 0.682838320732116699 189 211 147 222 34
5.943206787109375 1.76264798641204834 0.699477314949035645 189 211 147 222 34
5.7821660041809082 1.51188647747039795 0.674630284309387207 189 211 147 222 34
5.80975103378295898 1.54520571231842041 0.67607581615447998 189 211 147 222 34
5.75065040588378906 1.55201148986816406 0.678136169910430908 189 211 147 222 34
6.04380369186401367 1.79799389839172363 0.695551872253417969 189 211 147 222 34
6.00780725479125977 1.82495748996734619 0.696244776248931885 189 211 147 222 34
6.05194711685180664 1.8304131031036377 0.69329071044921875 189 211 147 222 34
6.1034846305847168 1.5900580883026123 0.67654109001159668 189 211 147 222 34
5.9874424934387207 1.73507344722747803 0.697195649147033691 189 211 147 222 34
5.96487522125244141 1.69714987277984619 0.694574534893035889 189 211 147 222 34
5.85360431671142578 1.6242443323135376 0.683157742023468018 189 211 147 222 34
5.86001729965209961 1.67465615272521973 0.695725083351135254 189 211 147 222 34
5.9392857551574707 1.60447025299072266 0.679597854614257812 189 211 147 222 34
5.8368220329284668 1.76496660709381104 0.695248305797576904 189 211 147 222 34
5.90666770935058594 1.79214572906494141 0.695042848587036133 189 211 147 222 34
6.19165420532226562 1.55742013454437256 0.682832479476928711 189 211 147 222 34
6.19642496109008789 1.53679633140563965 0.693786919116973877 189 211 147 222 34
6.2243800163269043 1.56211590766906738 0.689792096614837646 189 211 147 222 34
6.17571115493774414 1.73747670650482178 0.685931921005249023 189 211 147 222 34
6.19574499130249023 1.6755068302154541 0.684732496738433838 189 211 147 222 34
5.80418777465820312 1.67935800552368164 0.695167601108551025 189 211 147 222 34
5.8697962760925293 1.75813734531402588 0.698490679264068604 189 211 147 222 34
5.80056667327880859 1.7417595386505127 0.694784343242645264 189 211 147 222 34
5.83642053604125977 1.7169497013092041 0.700133800506591797 189 211 147 222 34
5.88923454284667969 1.69098043441772461 0.697351038455963135 189 211 147 222 34
5.72644424438476562 1.59919416904449463 0.681531250476837158 189 211 147 222 34
6.01643753051757812 1.5747530460357666 0.677722036838531494 189 211 147 222 34
5.70364189147949219 1.64033520221710205 0.695368111133575439 189 211 147 222 34
5.97031164169311523 1.51699578762054443 0.669635355472564697 189 211 147 222 34
5.97430706024169922 1.56093001365661621 0.672917187213897705 189 211 147 222 34
5.95463657379150391 1.6259990930557251 0.685815334320068359 189 211 147 222 34
5.77561664581298828 1.65836966037750244 0.696321547031402588 189 211 147 222 34
5.80292224884033203 1.6092379093170166 0.68149644136428833 189 211 147 222 34
5.7625727653503418 1.60995090007781982 0.685933470726013184 189 211 147 222 34
6.00335454940795898 1.85006248950958252 0.686891019344329834 189 211 147 222 34
5.74199247360229492 1.73046588897705078 0.693901896476745605 189 211 147 222 34
5.73434066772460938 1.74354815483093262 0.684653520584106445 189 211 147 222 34
5.73154735565185547 1.63754665851593018 0.696744263172149658 189 211 147 222 34
5.74772405624389648 1.68498122692108154 0.697896897792816162 189 211 147 222 34
5.7738494873046875 1.72450661659240723 0.696955740451812744 189 211 147 222 34
5.6841583251953125 1.70451319217681885 0.696477830410003662 189 211 147 222 34
5.69708108901977539 1.74252080917358398 0.684720695018768311 189 211 147 222 34
6.11653041839599609 1.73900902271270752 0.478193938732147217 189 211 147 222 34
6.11271142959594727 1.70173728466033936 0.532497107982635498 189 211 147 222 34
6.11448144912719727 1.72778022289276123 0.522409200668334961 189 211 147 222 34
6.09688758850097656 1.72572708129882812 0.535622060298919678 189 211 147 222 34
6.12694644927978516 1.69497120380401611 0.533726811408996582 189 211 147 222 34
6.11966037750244141 1.75201976299285889 0.509161293506622314 189 211 147 222 34
6.12246131896972656 1.73704147338867188 0.544979989528656006 189 211 147 222 34
6.01408147811889648 1.85347974300384521 0.514397859573364258 189 211 147 222 34
6.04774141311645508 1.83616518974304199 0.513398647308349609 189 211 147 222 34
6.00089931488037109 1.86959564685821533 0.497839361429214478 189 211 147 222 34
6.04687690734863281 1.84881484508514404 0.484792351722717285 189 211 147 222 34
6.01488018035888672 1.87475454807281494 0.462963700294494629 189 211 147 222 34
6.00240945816040039 1.85580658912658691 0.467223852872848511 189 211 147 222 34
6.0567622184753418 1.75831782817840576 0.542973518371582031 189 211 147 222 34
6.0424647331237793 1.79860341548919678 0.496365338563919067 189 211 147 222 34
6.03382301330566406 1.80113768577575684 0.53673088550567627 189 211 147 222 34
6.00566720962524414 1.84464538097381592 0.503706097602844238 189 211 147 222 34
6.14117765426635742 1.79879260063171387 0.382917612791061401 189 211 147 222 34
6.07642745971679688 1.81316375732421875 0.504009246826171875 189 211 147 222 34
6.11998748779296875 1.76005029678344727 0.475038498640060425 189 211 147 222 34
6.10777854919433594 1.78200769424438477 0.48931083083152771 189 211 147 222 34
5.98495292663574219 1.87369787693023682 0.444933444261550903 189 211 147 222 34
5.97814798355102539 1.88896214962005615 0.436004757881164551 189 211 147 222 34
5.97484922409057617 1.86730003356933594 0.413190722465515137 189 211 147 222 34
6.00000333786010742 1.87490534782409668 0.469951778650283813 189 211 147 222 34
5.79076671600341797 1.64473330974578857 0.541326582431793213 189 211 147 222 34
5.81779336929321289 1.65981209278106689 0.539595246315002441 189 211 147 222 34
6.07703733444213867 1.63282299041748047 0.491373986005783081 189 211 147 222 34
6.10667800903320312 1.74077653884887695 0.469595432281494141 189 211 147 222 34
6.09515571594238281 1.74738454818725586 0.482531338930130005 189 211 147 222 34
6.04166841506958008 1.65241193771362305 0.513075709342956543 189 211 147 222 34
6.06846046447753906 1.66400682926177979 0.519063234329223633 189 211 147 222 34
5.9978175163269043 1.67202973365783691 0.540755152702331543 189 211 147 222 34
6.01950597763061523 1.66314136981964111 0.525468945503234863 189 211 147 222 34
6.02975702285766602 1.81692588329315186 0.445437163114547729 189 211 147 222 34
6.02258872985839844 1.82395219802856445 0.475705057382583618 189 211 147 222 34
6.01850318908691406 1.82923305034637451 0.425054073333740234 189 211 147 222 34
6.04513692855834961 1.6770254373550415 0.524930000305175781 189 211 147 222 34
6.03826379776000977 1.71143805980682373 0.540597617626190186 189 211 147 222 34
6.00770330429077148 1.7012484073638916 0.536928474903106689 189 211 147 222 34
6.01253032684326172 1.73777437210083008 0.541744709014892578 189 211 147 222 34
5.9985499382019043 1.87755990028381348 0.430485159158706665 189 211 147 222 34
6.01244306564331055 1.83820199966430664 0.459244728088378906 189 211 147 222 34
6.0464024543762207 1.85684943199157715 0.451433181762695312 189 211 147 222 34
5.99513959884643555 1.85084187984466553 0.412771284580230713 189 211 147 222 34
6.06094169616699219 1.84826195240020752 0.432014733552932739 189 211 147 222 34
6.03346014022827148 1.86541998386383057 0.419359654188156128 189 211 147 222 34
6.11457967758178711 1.79899239540100098 0.4218902587890625 189 211 147 222 34
6.09916543960571289 1.7651512622833252 0.417620062828063965 189 211 147 222 34
6.10273122787475586 1.81091725826263428 0.435860574245452881 189 211 147 222 34
6.10048723220825195 1.81079137325286865 0.47021898627281189 189 211 147 222 34
6.11265134811401367 1.80836379528045654 0.406303584575653076 189 211 147 222 34
6.07872676849365234 1.84485721588134766 0.414878427982330322 189 211 147 222 34
6.12607145309448242 1.78505921363830566 0.468112021684646606 189 211 147 222 34
6.10687112808227539 1.83498060703277588 0.39939272403717041 189 211 147 222 34
6.0967564582824707 1.79112648963928223 0.421767473220825195 189 211 147 222 34
6.09465265274047852 1.75578176975250244 0.432117253541946411 189 211 147 222 34
6.11888885498046875 1.76059162616729736 0.452774643898010254 189 211 147 222 34
6.13708019256591797 1.79284763336181641 0.451909512281417847 189 211 147 222 34
6.13950824737548828 1.74792277812957764 0.554192721843719482 189 211 147 222 34
6.1236271858215332 1.79865777492523193 0.670508742332458496 189 211 147 222 34
6.14288902282714844 1.78942608833312988 0.669386088848114014 189 211 147 222 34
5.82216835021972656 1.69661545753479004 0.550762057304382324 189 211 147 222 34
5.79381704330444336 1.7226794958114624 0.574688434600830078 189 211 147 222 34
5.82380247116088867 1.76046848297119141 0.592914342880249023 189 211 147 222 34
6.01035308837890625 1.83733701705932617 0.544735252857208252 189 211 147 222 34
5.77958488464355469 1.75394988059997559 0.608048737049102783 189 211 147 222 34
5.82244396209716797 1.77074599266052246 0.616632044315338135 189 211 147 222 34
5.77526617050170898 1.75892043113708496 0.628563582897186279 189 211 147 222 34
5.94431591033935547 1.81587707996368408 0.647547125816345215 189 211 147 222 34
5.9177403450012207 1.81258046627044678 0.68227618932723999 189 211 147 222 34
5.96467733383178711 1.83468770980834961 0.683766722679138184 189 211 147 222 34
5.96057462692260742 1.80018341541290283 0.587567925453186035 189 211 147 222 34
5.95121955871582031 1.81837844848632812 0.608325362205505371 189 211 147 222 34
5.91532325744628906 1.78153359889984131 0.592112064361572266 189 211 147 222 34
5.99431848526000977 1.80596423149108887 0.579736173152923584 189 211 147 222 34
6.18180465698242188 1.66889035701751709 0.624858617782592773 189 211 147 222 34
6.17651844024658203 1.68796229362487793 0.635802626609802246 189 211 147 222 34
6.10531425476074219 1.79276025295257568 0.598218739032745361 189 211 147 222 34
5.74249362945556641 1.70241343975067139 0.5658683180809021 189 211 147 222 34
5.72269058227539062 1.74847996234893799 0.649839520454406738 189 211 147 222 34
5.73475170135498047 1.75357723236083984 0.609761834144592285 189 211 147 222 34
5.71738862991333008 1.74623537063598633 0.587568521499633789 189 211 147 222 34
5.74178791046142578 1.73824977874755859 0.592341303825378418 189 211 147 222 34
6.08188152313232422 1.83264768123626709 0.684396266937255859 189 211 147 222 34
5.87631845474243164 1.79155051708221436 0.610186517238616943 189 211 147 222 34
5.85035324096679688 1.78121721744537354 0.609087705612182617 189 211 147 222 34
5.91057538986206055 1.79888916015625 0.610547661781311035 189 211 147 222 34
5.87855911254882812 1.77094316482543945 0.58664315938949585 189 211 147 222 34
5.86062288284301758 1.67319619655609131 0.542967915534973145 189 211 147 222 34
5.89979076385498047 1.66589558124542236 0.551701545715332031 189 211 147 222 34
5.95632648468017578 1.73970663547515869 0.56103515625 189 211 147 222 34
5.79121637344360352 1.75589597225189209 0.65471494197845459 189 211 147 222 34
6.01081657409667969 1.84533524513244629 0.576250672340393066 189 211 147 222 34
6.02814245223999023 1.8428041934967041 0.576372861862182617 189 211 147 222 34
6.04992866516113281 1.83288478851318359 0.561694324016571045 189 211 147 222 34
5.99987077713012695 1.83561849594116211 0.580678224563598633 189 211 147 222 34
5.98903369903564453 1.84283149242401123 0.606950640678405762 189 211 147 222 34
5.85715770721435547 1.77739608287811279 0.650106132030487061 189 211 147 222 34
5.84175205230712891 1.77755987644195557 0.684403657913208008 189 211 147 222 34
5.83989763259887695 1.65171635150909424 0.556495308876037598 189 211 147 222 34
5.79250764846801758 1.62962329387664795 0.558900773525238037 189 211 147 222 34
5.89249849319458008 1.72800922393798828 0.560279130935668945 189 211 147 222 34
6.15810966491699219 1.72691714763641357 0.624439716339111328 189 211 147 222 34
6.1230921745300293 1.74215173721313477 0.584271073341369629 189 211 147 222 34
6.14942550659179688 1.73886549472808838 0.609505534172058105 189 211 147 222 34
6.13591575622558594 1.74462175369262695 0.594507694244384766 189 211 147 222 34
5.78085851669311523 1.75258791446685791 0.681709527969360352 189 211 147 222 34
5.87602853775024414 1.69089949131011963 0.544511020183563232 189 211 147 222 34
6.14232254028320312 1.75631165504455566 0.607567548751831055 189 211 147 222 34
6.12520551681518555 1.76885724067687988 0.546136558055877686 189 211 147 222 34
6.09562778472900391 1.80540800094604492 0.637578248977661133 189 211 147 222 34
6.15326166152954102 1.75765311717987061 0.634287357330322266 189 211 147 222 34
6.13293361663818359 1.77388310432434082 0.635383725166320801 189 211 147 222 34
6.01653242111206055 1.84810411930084229 0.653659343719482422 189 211 147 222 34
5.99181890487670898 1.84827578067779541 0.665578067302703857 189 211 147 222 34
6.05718421936035156 1.82968330383300781 0.644296109676361084 189 211 147 222 34
6.03382587432861328 1.84935986995697021 0.683624207973480225 189 211 147 222 34
6.00484943389892578 1.78261065483093262 0.563423991203308105 189 211 147 222 34
6.08569526672363281 1.81035912036895752 0.624897003173828125 189 211 147 222 34
6.02176618576049805 1.80072593688964844 0.559661626815795898 189 211 147 222 34
6.03243541717529297 1.75571620464324951 0.549118995666503906 189 211 147 222 34
6.08087015151977539 1.71532833576202393 0.542221903800964355 189 211 147 222 34
5.98818540573120117 1.73012793064117432 0.548904776573181152 189 211 147 222 34
6.1996150016784668 1.64411962032318115 0.627116143703460693 189 211 147 222 34
6.20033025741577148 1.62714505195617676 0.606172919273376465 189 211 147 222 34
5.96584892272949219 1.71800351142883301 0.548481166362762451 189 211 147 222 34
5.96729135513305664 1.67231166362762451 0.550058126449584961 189 211 147 222 34
5.95030403137207031 1.68541526794433594 0.550444662570953369 189 211 147 222 34
5.91232633590698242 1.6977226734161377 0.546177327632904053 189 211 147 222 34
5.69658517837524414 1.74568116664886475 0.667283833026885986 189 211 147 222 34
