ply
format ascii 1.0
element vertex 420
property float x
property float y
property float z
property uchar red
property uchar green
property uchar blue
property uchar alpha
property uint label
end_header
5.98715400695800781 7.98361825942993164 1.13344061374664307 0 0 0 0 0
5.95190668106079102 7.95786190032958984 1.1255728006362915 0 0 0 0 0
5.94210481643676758 7.95473861694335938 1.12660908699035645 0 0 0 0 0
5.95258903503417969 8.00521278381347656 1.12269330024719238 0 0 0 0 0
5.9848480224609375 8.044525146484375 1.12593591213226318 0 0 0 0 0
5.92245817184448242 8.0518951416015625 1.12116408348083496 0 0 0 0 0
5.93729925155639648 8.06013679504394531 1.12184131145477295 0 0 0 0 0
5.99750900268554688 8.24714279174804688 1.1510612964630127 0 0 0 0 0
5.95076179504394531 8.28009033203125 1.13938915729522705 0 0 0 0 0
5.98235034942626953 8.29230785369873047 1.14557480812072754 0 0 0 0 0
5.9156951904296875 8.25955486297607422 1.15890812873840332 0 0 0 0 0
5.97213077545166016 8.30771446228027344 1.12725150585174561 0 0 0 0 0
5.89295434951782227 8.16187095642089844 1.12727320194244385 0 0 0 0 0
5.87593460083007812 8.17436599731445312 1.1274867057800293 0 0 0 0 0
5.91382408142089844 8.19914913177490234 1.13227963447570801 0 0 0 0 0
5.90942859649658203 8.22418498992919922 1.15232455730438232 0 0 0 0 0
6.00706243515014648 7.92395162582397461 1.1267162561416626 0 0 0 0 0
6.00866317749023438 7.95804977416992188 1.13594532012939453 0 0 0 0 0
5.98704767227172852 8.33514308929443359 1.12930583953857422 0 0 0 0 0
5.92814302444458008 8.32326507568359375 1.15131747722625732 0 0 0 0 0
6.01559782028198242 8.21722221374511719 1.15769171714782715 0 0 0 0 0
6.04995441436767578 8.19134712219238281 1.15525209903717041 0 0 0 0 0
5.9770054817199707 8.16227054595947266 1.1575779914855957 0 0 0 0 0
5.95597696304321289 8.14354133605957031 1.14059603214263916 0 0 0 0 0
5.93603992462158203 8.17905616760253906 1.13318371772766113 0 0 0 0 0
5.96026754379272461 8.18571281433105469 1.15004944801330566 0 0 0 0 0
5.93326568603515625 8.20992279052734375 1.14226186275482178 0 0 0 0 0
5.97396230697631836 8.24977779388427734 1.15014410018920898 0 0 0 0 0
5.89169406890869141 8.21711635589599609 1.13995134830474854 0 0 0 0 0
5.89896917343139648 8.24336624145507812 1.15819180011749268 0 0 0 0 0
5.96730613708496094 8.05134773254394531 1.11757898330688477 0 0 0 0 0
6.01944494247436523 8.25945472717285156 1.1502687931060791 0 0 0 0 0
6.03675031661987305 8.25167465209960938 1.1589125394821167 0 0 0 0 0
6.07331562042236328 8.24152755737304688 1.15272653102874756 0 0 0 0 0
6.05007457733154297 8.22521686553955078 1.14891493320465088 0 0 0 0 0
5.99881505966186523 8.30069351196289062 1.14291155338287354 0 0 0 0 0
6.0021519660949707 8.12924575805664062 1.15629291534423828 0 0 0 0 0
6.03525209426879883 8.13714981079101562 1.14404988288879395 0 0 0 0 0
6.00684928894042969 8.16367435455322266 1.15943348407745361 0 0 0 0 0
5.98863744735717773 8.11560916900634766 1.14487648010253906 0 0 0 0 0
5.94021463394165039 8.12889480590820312 1.12533068656921387 0 0 0 0 0
5.98872804641723633 8.08070468902587891 1.11268723011016846 0 0 0 0 0
5.95707988739013672 8.11284542083740234 1.12251079082489014 0 0 0 0 0
5.90887975692749023 8.10802459716796875 1.12505507469177246 0 0 0 0 0
6.00184059143066406 8.07293319702148438 1.20451676845550537 0 0 0 0 0
5.98537635803222656 8.05124568939208984 1.25223648548126221 0 0 0 0 0
5.98770618438720703 8.04516887664794922 1.24019026756286621 0 0 0 0 0
5.9447016716003418 8.00884056091308594 1.26519393920898438 0 0 0 0 0
5.96173620223999023 8.04416084289550781 1.25655829906463623 0 0 0 0 0
5.96166038513183594 8.00295066833496094 1.25002908706665039 0 0 0 0 0
5.97850227355957031 8.06331539154052734 1.16384661197662354 0 0 0 0 0
5.98156261444091797 8.01740932464599609 1.1885610818862915 0 0 0 0 0
5.97606849670410156 8.028350830078125 1.17132973670959473 0 0 0 0 0
5.98485469818115234 8.0159149169921875 1.13565075397491455 0 0 0 0 0
5.99591302871704102 8.05806827545166016 1.18504524230957031 0 0 0 0 0
6.03014373779296875 8.07349300384521484 1.21404790878295898 0 0 0 0 0
6.01006841659545898 8.06399059295654297 1.24236953258514404 0 0 0 0 0
6.04064273834228516 7.95463323593139648 1.20157730579376221 0 0 0 0 0
6.00039291381835938 7.98170661926269531 1.16715085506439209 0 0 0 0 0
6.03730249404907227 7.93932676315307617 1.14496457576751709 0 0 0 0 0
6.04508113861083984 7.93913698196411133 1.18303179740905762 0 0 0 0 0
6.01103448867797852 7.96252107620239258 1.17972075939178467 0 0 0 0 0
5.92761421203613281 7.98228120803833008 1.27537417411804199 0 0 0 0 0
5.96228265762329102 7.99860858917236328 1.22620153427124023 0 0 0 0 0
5.95242929458618164 7.97144460678100586 1.24758076667785645 0 0 0 0 0
6.02153921127319336 8.11787033081054688 1.1907116174697876 0 0 0 0 0
5.9334101676940918 8.03548336029052734 1.27362775802612305 0 0 0 0 0
6.00956058502197266 8.11716938018798828 1.16413795948028564 0 0 0 0 0
5.99778842926025391 8.09062862396240234 1.17731976509094238 0 0 0 0 0
6.19818449020385742 8.09519672393798828 1.14182829856872559 0 0 0 0 0
6.15725326538085938 8.08530616760253906 1.13070917129516602 0 0 0 0 0
6.1764063835144043 8.07636070251464844 1.14803111553192139 0 0 0 0 0
6.21561479568481445 8.12873649597167969 1.14437747001647949 0 0 0 0 0
6.07883834838867188 7.96485424041748047 1.03434503078460693 0 0 0 0 0
5.99787807464599609 7.9324188232421875 1.04544973373413086 0 0 0 0 0
6.03584432601928711 7.94714689254760742 1.0381547212600708 0 0 0 0 0
6.05865669250488281 7.94771480560302734 1.0571444034576416 0 0 0 0 0
6.02209806442260742 7.93138551712036133 1.09137070178985596 0 0 0 0 0
6.10177993774414062 8.07819271087646484 1.12339162826538086 0 0 0 0 0
6.12535953521728516 8.08835983276367188 1.08492851257324219 0 0 0 0 0
6.08988809585571289 8.07611465454101562 1.10129415988922119 0 0 0 0 0
6.08773136138916016 8.08082103729248047 1.08384990692138672 0 0 0 0 0
5.99611616134643555 8.08515071868896484 1.06870913505554199 0 0 0 0 0
6.04174947738647461 8.10606098175048828 1.10941004753112793 0 0 0 0 0
6.01069164276123047 8.07843208312988281 1.09763717651367188 0 0 0 0 0
6.00587081909179688 8.11506366729736328 1.09333920478820801 0 0 0 0 0
6.05427312850952148 8.13499736785888672 1.09503555297851562 0 0 0 0 0
6.02518844604492188 8.06220912933349609 1.08059036731719971 0 0 0 0 0
6.29999589920043945 8.10209941864013672 1.11012768745422363 0 0 0 0 0
6.08016347885131836 8.02560138702392578 1.18965840339660645 0 0 0 0 0
6.06265878677368164 8.03867149353027344 1.20808756351470947 0 0 0 0 0
6.26307058334350586 8.07228565216064453 1.11684894561767578 0 0 0 0 0
6.21728944778442383 8.07409477233886719 1.12952792644500732 0 0 0 0 0
6.23557043075561523 8.10433769226074219 1.13435459136962891 0 0 0 0 0
6.0264735221862793 7.92207813262939453 1.11998963356018066 0 0 0 0 0
6.06679868698120117 7.93555593490600586 1.17173242568969727 0 0 0 0 0
6.05349302291870117 8.15743064880371094 1.12087583541870117 0 0 0 0 0
6.06310176849365234 8.17339706420898438 1.14402830600738525 0 0 0 0 0
6.08101320266723633 7.94058561325073242 1.14014649391174316 0 0 0 0 0
6.14609003067016602 7.96820354461669922 1.14676225185394287 0 0 0 0 0
6.07817935943603516 7.97470569610595703 1.17913389205932617 0 0 0 0 0
6.11160421371459961 7.95441389083862305 1.17100822925567627 0 0 0 0 0
6.14269304275512695 7.97301149368286133 1.16642129421234131 0 0 0 0 0
6.10974311828613281 7.97237634658813477 1.18693506717681885 0 0 0 0 0
6.10353803634643555 7.99311017990112305 1.18750405311584473 0 0 0 0 0
6.1217494010925293 7.95847988128662109 1.08362829685211182 0 0 0 0 0
6.07781696319580078 7.94339227676391602 1.09432351589202881 0 0 0 0 0
6.11992597579956055 7.95055723190307617 1.12006914615631104 0 0 0 0 0
6.09172582626342773 7.953643798828125 1.0534745454788208 0 0 0 0 0
6.15432167053222656 7.97683334350585938 1.05359780788421631 0 0 0 0 0
6.25712919235229492 8.04062271118164062 1.0838775634765625 0 0 0 0 0
6.24694585800170898 8.03801631927490234 1.03600490093231201 0 0 0 0 0
6.23731327056884766 8.02384281158447266 1.11552107334136963 0 0 0 0 0
6.26601839065551758 8.06614589691162109 1.09239506721496582 0 0 0 0 0
6.22751522064208984 8.0113525390625 1.08024394512176514 0 0 0 0 0
6.18320465087890625 7.99517107009887695 1.03284871578216553 0 0 0 0 0
6.21135616302490234 8.047882080078125 1.14614450931549072 0 0 0 0 0
6.23565101623535156 8.04425716400146484 1.12948143482208252 0 0 0 0 0
6.18294906616210938 8.05461978912353516 1.15259170532226562 0 0 0 0 0
6.15571260452270508 8.03627395629882812 1.15963327884674072 0 0 0 0 0
6.16164970397949219 7.99396610260009766 1.16625726222991943 0 0 0 0 0
6.18650436401367188 8.02246284484863281 1.16460394859313965 0 0 0 0 0
6.07476091384887695 8.07145309448242188 1.15450501441955566 0 0 0 0 0
6.13245534896850586 8.06002902984619141 1.14672040939331055 0 0 0 0 0
6.14861106872558594 8.09599494934082031 1.11133933067321777 0 0 0 0 0
6.05503177642822266 8.07230281829833984 1.09686374664306641 0 0 0 0 0
5.97867298126220703 7.93265056610107422 1.05260694026947021 0 0 0 0 0
6.15977239608764648 7.96641254425048828 1.12180376052856445 0 0 0 0 0
6.2152867317199707 7.99615955352783203 1.12226009368896484 0 0 0 0 0
6.19775676727294922 8.00374126434326172 1.13909482955932617 0 0 0 0 0
6.1928868293762207 8.11660861968994141 1.13821327686309814 0 0 0 0 0
6.21464204788208008 8.01011085510253906 1.03397274017333984 0 0 0 0 0
6.07850313186645508 7.99405097961425781 1.20782697200775146 0 0 0 0 0
6.03830575942993164 8.09117889404296875 1.20070374011993408 0 0 0 0 0
6.04485750198364258 8.12693977355957031 1.13102340698242188 0 0 0 0 0
6.03409004211425781 8.11579799652099609 1.18016231060028076 0 0 0 0 0
6.07943534851074219 8.07775688171386719 1.12195873260498047 0 0 0 0 0
6.04650735855102539 8.09791374206542969 1.16664910316467285 0 0 0 0 0
6.11832380294799805 8.00823020935058594 1.19866061210632324 0 0 0 0 0
6.12934970855712891 8.02486324310302734 1.18038797378540039 0 0 0 0 0
6.09773778915405273 8.04459476470947266 1.1569819450378418 0 0 0 0 0
6.11083078384399414 8.01691055297851562 1.20695233345031738 0 0 0 0 0
6.13754844665527344 7.98289060592651367 1.03481864929199219 0 0 0 0 0
6.18328619003295898 7.97508907318115234 1.11976945400238037 0 0 0 0 0
6.20002889633178711 7.98966693878173828 1.09581482410430908 0 0 0 0 0
6.18978500366210938 7.98737573623657227 1.06227266788482666 0 0 0 0 0
5.98883247375488281 7.91304588317871094 1.27735042572021484 0 0 0 0 0
5.9635157585144043 7.92758893966674805 1.28569626808166504 0 0 0 0 0
5.9301915168762207 7.96352577209472656 1.28089964389801025 0 0 0 0 0
6.02059268951416016 7.96207904815673828 1.32515549659729004 0 0 0 0 0
6.08948421478271484 7.96965551376342773 1.33399116992950439 0 0 0 0 0
6.10985040664672852 7.98347377777099609 1.32894659042358398 0 0 0 0 0
6.09065103530883789 7.95743608474731445 1.3116295337677002 0 0 0 0 0
6.09531927108764648 8.00469017028808594 1.31604671478271484 0 0 0 0 0
6.090423583984375 8.04510593414306641 1.33337736129760742 0 0 0 0 0
6.09411954879760742 8.06398868560791016 1.34869289398193359 0 0 0 0 0
6.10185384750366211 8.07675266265869141 1.34511220455169678 0 0 0 0 0
6.08686113357543945 8.03371524810791016 1.32280540466308594 0 0 0 0 0
6.10100555419921875 8.01762676239013672 1.33502388000488281 0 0 0 0 0
6.09812068939208984 7.99866199493408203 1.34188330173492432 0 0 0 0 0
5.9982304573059082 8.06434917449951172 1.27101743221282959 0 0 0 0 0
5.98696470260620117 7.97213459014892578 1.19902586936950684 0 0 0 0 0
5.96362495422363281 7.99002933502197266 1.20864772796630859 0 0 0 0 0
5.97237539291381836 8.08218669891357422 1.26367449760437012 0 0 0 0 0
6.05996847152709961 7.95728874206542969 1.33832061290740967 0 0 0 0 0
6.07422351837158203 8.02433490753173828 1.33493483066558838 0 0 0 0 0
6.04001283645629883 8.05398464202880859 1.34876739978790283 0 0 0 0 0
6.06368732452392578 8.05561161041259766 1.30486118793487549 0 0 0 0 0
6.05069637298583984 8.0625762939453125 1.28472614288330078 0 0 0 0 0
6.05969667434692383 8.00407123565673828 1.21921014785766602 0 0 0 0 0
6.06452083587646484 8.03570079803466797 1.26742732524871826 0 0 0 0 0
6.03029870986938477 8.06090164184570312 1.25843369960784912 0 0 0 0 0
6.05268478393554688 8.04301929473876953 1.2422642707824707 0 0 0 0 0
6.05646133422851562 8.01742839813232422 1.23638415336608887 0 0 0 0 0
6.03187322616577148 7.94845104217529297 1.21976363658905029 0 0 0 0 0
6.05664682388305664 7.97922372817993164 1.22163546085357666 0 0 0 0 0
6.02027559280395508 7.92091989517211914 1.24595499038696289 0 0 0 0 0
6.05882549285888672 7.95402956008911133 1.2759559154510498 0 0 0 0 0
6.07130098342895508 7.9707188606262207 1.28843533992767334 0 0 0 0 0
6.06093597412109375 7.96369695663452148 1.2460482120513916 0 0 0 0 0
6.06662464141845703 7.99273061752319336 1.25703871250152588 0 0 0 0 0
6.08159017562866211 8.00052547454833984 1.29193985462188721 0 0 0 0 0
6.03373479843139648 7.92405223846435547 1.28757321834564209 0 0 0 0 0
5.9840397834777832 8.13210105895996094 1.30763804912567139 0 0 0 0 0
5.9733881950378418 8.10356044769287109 1.31792843341827393 0 0 0 0 0
5.99769210815429688 8.10065841674804688 1.28817451000213623 0 0 0 0 0
5.94967508316040039 8.08604717254638672 1.30012929439544678 0 0 0 0 0
5.99102163314819336 7.91619777679443359 1.30137002468109131 0 0 0 0 0
6.00932741165161133 7.91107606887817383 1.28888416290283203 0 0 0 0 0
6.03726434707641602 7.93179702758789062 1.32792186737060547 0 0 0 0 0
6.0330204963684082 8.10993480682373047 1.27637255191802979 0 0 0 0 0
6.02050447463989258 8.12146854400634766 1.29427897930145264 0 0 0 0 0
6.05512285232543945 8.13478946685791016 1.30711603164672852 0 0 0 0 0
6.00511360168457031 8.15038681030273438 1.30099081993103027 0 0 0 0 0
6.02306365966796875 8.08594131469726562 1.34511232376098633 0 0 0 0 0
6.01729917526245117 8.11934471130371094 1.33526194095611572 0 0 0 0 0
6.05537796020507812 8.09752368927001953 1.29928100109100342 0 0 0 0 0
6.06993532180786133 8.09928321838378906 1.32401275634765625 0 0 0 0 0
6.02375984191894531 8.14843082427978516 1.32629776000976562 0 0 0 0 0
6.02851533889770508 8.15510463714599609 1.30842947959899902 0 0 0 0 0
6.06767463684082031 8.14335250854492188 1.34180355072021484 0 0 0 0 0
6.03003597259521484 8.07938480377197266 1.27629923820495605 0 0 0 0 0
6.05597639083862305 8.12806415557861328 1.3498607873916626 0 0 0 0 0
5.97083473205566406 8.11423969268798828 1.28393316268920898 0 0 0 0 0
6.09407520294189453 8.09932613372802734 1.3543860912322998 0 0 0 0 0
6.08948850631713867 8.12252235412597656 1.34437799453735352 0 0 0 0 0
5.95154857635498047 7.94064474105834961 1.2653731107711792 0 0 0 0 0
5.99013376235961914 7.92473268508911133 1.24802851676940918 0 0 0 0 0
5.96088075637817383 7.96132469177246094 1.22928190231323242 0 0 0 0 0
5.98626518249511719 7.94805240631103516 1.22739458084106445 0 0 0 0 0
5.92206716537475586 8.0278778076171875 1.2912909984588623 0 0 0 0 0
5.97623920440673828 8.07752037048339844 1.32620501518249512 0 0 0 0 0
5.94520139694213867 8.06008243560791016 1.30988049507141113 0 0 0 0 0
6.01327610015869141 8.00847530364990234 1.3308788537979126 0 0 0 0 0
5.95631599426269531 7.95544862747192383 1.2971116304397583 0 0 0 0 0
5.92174434661865234 8.00003242492675781 1.28974342346191406 0 0 0 0 0
5.93992805480957031 8.06601619720458984 1.28125357627868652 0 0 0 0 0
6.10004615783691406 8.43610477447509766 1.08888530731201172 0 0 0 0 0
6.19451093673706055 8.4450225830078125 1.20243000984191895 0 0 0 0 0
6.18542194366455078 8.42483425140380859 1.21087145805358887 0 0 0 0 0
6.0567317008972168 8.32356357574462891 1.20521378517150879 0 0 0 0 0
6.16477823257446289 8.43791294097900391 1.15522396564483643 0 0 0 0 0
6.18027210235595703 8.45142555236816406 1.17398452758789062 0 0 0 0 0
6.14292430877685547 8.41917514801025391 1.16106009483337402 0 0 0 0 0
6.02812385559082031 8.28423309326171875 1.21289217472076416 0 0 0 0 0
6.04584074020385742 8.28394317626953125 1.19133841991424561 0 0 0 0 0
6.02541160583496094 8.23779487609863281 1.2175142765045166 0 0 0 0 0
6.01849126815795898 8.25344085693359375 1.21892082691192627 0 0 0 0 0
6.08351850509643555 8.23922157287597656 1.11670303344726562 0 0 0 0 0
6.13260412216186523 8.16931629180908203 1.2268604040145874 0 0 0 0 0
6.07454299926757812 8.16382598876953125 1.2320784330368042 0 0 0 0 0
6.14861965179443359 8.18164539337158203 1.22747361660003662 0 0 0 0 0
6.14785289764404297 8.24200057983398438 1.28805339336395264 0 0 0 0 0
6.11667966842651367 8.14122295379638672 1.2823491096496582 0 0 0 0 0
6.11038064956665039 8.28574752807617188 1.29099714756011963 0 0 0 0 0
6.12018537521362305 8.25453090667724609 1.31189489364624023 0 0 0 0 0
6.15944147109985352 8.28388118743896484 1.31037509441375732 0 0 0 0 0
6.12971353530883789 8.31037139892578125 1.29070699214935303 0 0 0 0 0
6.12711000442504883 8.222015380859375 1.11838901042938232 0 0 0 0 0
6.1033167839050293 8.15582180023193359 1.23984980583190918 0 0 0 0 0
6.09205150604248047 8.11134719848632812 1.26297760009765625 0 0 0 0 0
6.11217546463012695 8.12799358367919922 1.27113759517669678 0 0 0 0 0
6.16481828689575195 8.20149898529052734 1.22551286220550537 0 0 0 0 0
6.21449089050292969 8.23485374450683594 1.19977998733520508 0 0 0 0 0
6.20770835876464844 8.19553852081298828 1.17567646503448486 0 0 0 0 0
6.17438602447509766 8.22868824005126953 1.23464953899383545 0 0 0 0 0
6.14728450775146484 8.40948104858398438 1.2034686803817749 0 0 0 0 0
6.06099605560302734 8.30905055999755859 1.2193373441696167 0 0 0 0 0
6.0513453483581543 8.22934150695800781 1.26201343536376953 0 0 0 0 0
6.10135698318481445 8.28583812713623047 1.25808703899383545 0 0 0 0 0
6.11633539199829102 8.33609962463378906 1.2329704761505127 0 0 0 0 0
6.10061550140380859 8.36365699768066406 1.20905983448028564 0 0 0 0 0
6.139801025390625 8.31928920745849609 1.25573611259460449 0 0 0 0 0
6.03519392013549805 8.19823455810546875 1.12829864025115967 0 0 0 0 0
6.07755947113037109 8.20657444000244141 1.13451826572418213 0 0 0 0 0
6.06909608840942383 8.23861980438232422 1.16754162311553955 0 0 0 0 0
6.0600590705871582 8.1724090576171875 1.18003129959106445 0 0 0 0 0
6.04176855087280273 8.17120647430419922 1.19694852828979492 0 0 0 0 0
6.06481695175170898 8.18966865539550781 1.16673755645751953 0 0 0 0 0
6.07824897766113281 8.18196487426757812 1.15389764308929443 0 0 0 0 0
6.03342199325561523 8.20445632934570312 1.19950973987579346 0 0 0 0 0
6.03029537200927734 8.22414493560791016 1.18871235847473145 0 0 0 0 0
6.13380241394042969 8.25348854064941406 1.09791803359985352 0 0 0 0 0
6.11021041870117188 8.24897575378417969 1.10493886470794678 0 0 0 0 0
6.13900613784790039 8.27308177947998047 1.0647510290145874 0 0 0 0 0
6.16072893142700195 8.26692676544189453 1.07456541061401367 0 0 0 0 0
6.16330051422119141 8.43113517761230469 1.1935427188873291 0 0 0 0 0
6.11148738861083984 8.39049434661865234 1.19118988513946533 0 0 0 0 0
6.12249040603637695 8.4142913818359375 1.1306382417678833 0 0 0 0 0
6.14797353744506836 8.45814418792724609 1.12672853469848633 0 0 0 0 0
6.09676408767700195 8.41027259826660156 1.11606383323669434 0 0 0 0 0
6.19493532180786133 8.18010997772216797 1.13106906414031982 0 0 0 0 0
6.16422224044799805 8.20100021362304688 1.11431026458740234 0 0 0 0 0
6.16116142272949219 8.18478775024414062 1.1534574031829834 0 0 0 0 0
6.17683744430541992 8.180816650390625 1.17875683307647705 0 0 0 0 0
6.22590208053588867 8.23680782318115234 1.19807696342468262 0 0 0 0 0
6.0463252067565918 8.19027996063232422 1.22814309597015381 0 0 0 0 0
6.04473972320556641 8.21483612060546875 1.21790039539337158 0 0 0 0 0
6.07283830642700195 8.16461658477783203 1.18847250938415527 0 0 0 0 0
6.03914737701416016 8.25412845611572266 1.23653101921081543 0 0 0 0 0
6.02814483642578125 8.20563888549804688 1.24631524085998535 0 0 0 0 0
6.02393293380737305 8.18685054779052734 1.26476037502288818 0 0 0 0 0
6.06853771209716797 8.14098644256591797 1.30207479000091553 0 0 0 0 0
6.07032108306884766 8.08908367156982422 1.29744625091552734 0 0 0 0 0
6.02643489837646484 8.14683914184570312 1.29501748085021973 0 0 0 0 0
6.08384084701538086 8.25251293182373047 1.08997488021850586 0 0 0 0 0
6.10022926330566406 8.14862442016601562 1.29951286315917969 0 0 0 0 0
6.08981132507324219 8.08925628662109375 1.28751909732818604 0 0 0 0 0
6.05075597763061523 8.27918624877929688 1.16232931613922119 0 0 0 0 0
6.0482177734375 8.25453948974609375 1.16646063327789307 0 0 0 0 0
6.04035711288452148 8.29467678070068359 1.13821768760681152 0 0 0 0 0
6.03425788879394531 8.25804424285888672 1.19600367546081543 0 0 0 0 0
6.06825685501098633 8.31073856353759766 1.14355182647705078 0 0 0 0 0
6.12599277496337891 8.2167205810546875 1.30156397819519043 0 0 0 0 0
6.13313579559326172 8.18488883972167969 1.28160381317138672 0 0 0 0 0
6.09433126449584961 8.22632217407226562 1.31161105632781982 0 0 0 0 0
6.15310764312744141 8.33384990692138672 1.24950706958770752 0 0 0 0 0
6.17763614654541016 8.35680198669433594 1.25019335746765137 0 0 0 0 0
6.13943672180175781 8.31447887420654297 1.27798914909362793 0 0 0 0 0
6.20895671844482422 8.33134651184082031 1.25011062622070312 0 0 0 0 0
6.17196369171142578 8.37359809875488281 1.23385035991668701 0 0 0 0 0
6.14947032928466797 8.36239910125732422 1.22951745986938477 0 0 0 0 0
6.11522483825683594 8.19316577911376953 1.14041006565093994 0 0 0 0 0
6.13659524917602539 8.17618656158447266 1.17020225524902344 0 0 0 0 0
6.06246566772460938 8.08113765716552734 1.27495455741882324 0 0 0 0 0
6.0475311279296875 8.1639251708984375 1.24802982807159424 0 0 0 0 0
6.17462825775146484 8.27703475952148438 1.26446545124053955 0 0 0 0 0
6.22051191329956055 8.29142475128173828 1.21723818778991699 0 0 0 0 0
6.19716644287109375 8.28597259521484375 1.23222541809082031 0 0 0 0 0
6.06847476959228516 8.33961009979248047 1.19488418102264404 0 0 0 0 0
6.09110641479492188 8.37881851196289062 1.12663066387176514 0 0 0 0 0
6.09050273895263672 8.33893108367919922 1.15049052238464355 0 0 0 0 0
6.09997797012329102 8.35313510894775391 1.13541209697723389 0 0 0 0 0
6.07587242126464844 8.32453250885009766 1.17397868633270264 0 0 0 0 0
6.12209081649780273 8.39568710327148438 1.15170526504516602 0 0 0 0 0
6.06328630447387695 8.34248542785644531 1.12621212005615234 0 0 0 0 0
6.03583717346191406 8.189208984375 1.29531455039978027 0 0 0 0 0
6.04679727554321289 8.15191555023193359 1.30213940143585205 0 0 0 0 0
6.0244903564453125 8.18561172485351562 1.28286302089691162 0 0 0 0 0
6.05992507934570312 8.23141288757324219 1.29066145420074463 0 0 0 0 0
6.0044102668762207 8.38634204864501953 1.10134875774383545 0 0 0 0 0
6.0248870849609375 8.43679332733154297 1.10293459892272949 0 0 0 0 0
6.02305507659912109 8.41261005401611328 1.08746886253356934 0 0 0 0 0
5.99485969543457031 8.43041610717773438 1.07974708080291748 0 0 0 0 0
6.02253484725952148 8.40721321105957031 1.10264599323272705 0 0 0 0 0
6.03118562698364258 8.39381027221679688 1.11170673370361328 0 0 0 0 0
6.04149246215820312 8.43947219848632812 1.08485531806945801 0 0 0 0 0
6.00115823745727539 8.36640167236328125 1.14325129985809326 0 0 0 0 0
5.99431085586547852 8.3537139892578125 1.10964846611022949 0 0 0 0 0
5.98754739761352539 8.41296100616455078 1.0755537748336792 0 0 0 0 0
5.96177339553833008 8.3983612060546875 1.09826529026031494 0 0 0 0 0
5.98515701293945312 8.41990184783935547 1.09556853771209717 0 0 0 0 0
6.00545120239257812 8.34685039520263672 1.10869193077087402 0 0 0 0 0
5.99373531341552734 8.38557624816894531 1.09320318698883057 0 0 0 0 0
6.01089668273925781 8.43434524536132812 1.10223102569580078 0 0 0 0 0
6.05202293395996094 8.43185806274414062 1.12744057178497314 0 0 0 0 0
6.02836942672729492 8.47378349304199219 1.12232339382171631 0 0 0 0 0
6.00983524322509766 8.44709205627441406 1.14413201808929443 0 0 0 0 0
6.04602909088134766 8.45841312408447266 1.14839339256286621 0 0 0 0 0
6.0288853645324707 8.46714973449707031 1.15333449840545654 0 0 0 0 0
6.00572395324707031 8.39152145385742188 1.15641379356384277 0 0 0 0 0
6.02934980392456055 8.42987155914306641 1.15694904327392578 0 0 0 0 0
6.0476069450378418 8.48322486877441406 1.13567888736724854 0 0 0 0 0
5.99447345733642578 8.37902069091796875 1.14259326457977295 0 0 0 0 0
6.05376482009887695 8.45453929901123047 1.11361277103424072 0 0 0 0 0
6.00982379913330078 8.42932796478271484 1.15777230262756348 0 0 0 0 0
5.99471616744995117 8.37476634979248047 1.11981070041656494 0 0 0 0 0
6.01151180267333984 8.33981990814208984 1.12526035308837891 0 0 0 0 0
6.0197758674621582 8.37325096130371094 1.13653874397277832 0 0 0 0 0
6.11894321441650391 8.43202972412109375 1.0172727108001709 0 0 0 0 0
6.10705041885375977 8.47370243072509766 1.05228221416473389 0 0 0 0 0
6.11740684509277344 8.42208957672119141 1.06113016605377197 0 0 0 0 0
6.13990116119384766 8.47441482543945312 1.11387312412261963 0 0 0 0 0
6.10789871215820312 8.48529052734375 0.964970409870147705 0 0 0 0 0
6.09825849533081055 8.513580322265625 0.995765626430511475 0 0 0 0 0
6.09380865097045898 8.48776435852050781 0.945280849933624268 0 0 0 0 0
6.08032131195068359 8.50568866729736328 0.965084969997406006 0 0 0 0 0
6.09513950347900391 8.51295280456542969 1.03838598728179932 0 0 0 0 0
6.11535215377807617 8.48517513275146484 1.02455127239227295 0 0 0 0 0
6.08624505996704102 8.53825283050537109 1.00542950630187988 0 0 0 0 0
6.0615696907043457 8.30501174926757812 0.913229107856750488 0 0 0 0 0
6.08716392517089844 8.31286811828613281 0.937407732009887695 0 0 0 0 0
6.06575489044189453 8.30934810638427734 0.895619750022888184 0 0 0 0 0
6.11619234085083008 8.28943824768066406 0.894930899143218994 0 0 0 0 0
6.09270858764648438 8.30848503112792969 0.913619756698608398 0 0 0 0 0
6.11209917068481445 8.31711101531982422 0.894818425178527832 0 0 0 0 0
6.13478565216064453 8.30284500122070312 0.967303931713104248 0 0 0 0 0
6.11582422256469727 8.28915882110595703 0.915273904800415039 0 0 0 0 0
6.11597156524658203 8.30291461944580078 0.90960383415222168 0 0 0 0 0
6.03700828552246094 8.31269168853759766 0.953889191150665283 0 0 0 0 0
6.0863037109375 8.53214073181152344 1.06345856189727783 0 0 0 0 0
6.13162374496459961 8.48117542266845703 1.095314621925354 0 0 0 0 0
6.10797929763793945 8.46689414978027344 1.08619272708892822 0 0 0 0 0
6.09874200820922852 8.47545242309570312 1.07022726535797119 0 0 0 0 0
6.12371492385864258 8.50079631805419922 1.09369683265686035 0 0 0 0 0
6.07696008682250977 8.55373191833496094 1.0414271354675293 0 0 0 0 0
6.0686945915222168 8.37581920623779297 0.910747766494750977 0 0 0 0 0
6.11664485931396484 8.31972408294677734 0.949979782104492188 0 0 0 0 0
6.0056452751159668 8.51736927032470703 0.951662600040435791 0 0 0 0 0
6.00785589218139648 8.54650688171386719 0.966991901397705078 0 0 0 0 0
6.02186870574951172 8.5154571533203125 0.958495557308197021 0 0 0 0 0
6.01002407073974609 8.51211357116699219 0.923317790031433105 0 0 0 0 0
6.03609943389892578 8.49385166168212891 0.93346107006072998 0 0 0 0 0
6.02271842956542969 8.4807586669921875 0.90924072265625 0 0 0 0 0
6.01385259628295898 8.51567173004150391 0.89487922191619873 0 0 0 0 0
6.14640903472900391 8.36053180694580078 1.03206217288970947 0 0 0 0 0
6.07042074203491211 8.32387924194335938 0.963221609592437744 0 0 0 0 0
6.10907411575317383 8.35177707672119141 0.987237632274627686 0 0 0 0 0
6.08562040328979492 8.37152004241943359 0.988198339939117432 0 0 0 0 0
6.13347339630126953 8.38862037658691406 1.01136982440948486 0 0 0 0 0
6.13926792144775391 8.32005500793457031 0.970624327659606934 0 0 0 0 0
6.14156055450439453 8.35588264465332031 0.99983525276184082 0 0 0 0 0
6.14237165451049805 8.39085197448730469 1.03556942939758301 0 0 0 0 0
6.10798168182373047 8.46559524536132812 0.995872080326080322 0 0 0 0 0
6.09912729263305664 8.42397403717041016 0.982464194297790527 0 0 0 0 0
6.05957984924316406 8.36945056915283203 0.961528360843658447 0 0 0 0 0
6.11009788513183594 8.41030311584472656 1.00054705142974854 0 0 0 0 0
6.05171012878417969 8.33820724487304688 0.970722377300262451 0 0 0 0 0
6.16420269012451172 8.48426151275634766 1.12661886215209961 0 0 0 0 0
6.03795051574707031 8.44701862335205078 0.906219363212585449 0 0 0 0 0
6.05434608459472656 8.48360061645507812 0.932222425937652588 0 0 0 0 0
6.08097457885742188 8.43441486358642578 0.907555997371673584 0 0 0 0 0
6.08628129959106445 8.41653060913085938 0.912788450717926025 0 0 0 0 0
6.09033966064453125 8.44718837738037109 0.92267763614654541 0 0 0 0 0
6.08818626403808594 8.40991306304931641 0.931650638580322266 0 0 0 0 0
6.10813379287719727 8.45344161987304688 0.94655001163482666 0 0 0 0 0
6.07412242889404297 8.44446372985839844 0.889203250408172607 0 0 0 0 0
6.08974647521972656 8.41023540496826172 0.886774837970733643 0 0 0 0 0
6.05349588394165039 8.33485698699951172 0.900268912315368652 0 0 0 0 0
6.07540273666381836 8.37817859649658203 0.898198366165161133 0 0 0 0 0
6.0296177864074707 8.32754707336425781 0.946429610252380371 0 0 0 0 0
6.04481649398803711 8.31300163269042969 0.903048157691955566 0 0 0 0 0
6.05739116668701172 8.58877468109130859 1.04234218597412109 0 0 0 0 0
6.05922698974609375 8.58051013946533203 1.0848318338394165 0 0 0 0 0
6.06281280517578125 8.56521415710449219 1.04241335391998291 0 0 0 0 0
6.07650375366210938 8.53345203399658203 0.985521674156188965 0 0 0 0 0
6.07297658920288086 8.57828140258789062 1.01109218597412109 0 0 0 0 0
6.0360112190246582 8.59360980987548828 1.04977178573608398 0 0 0 0 0
6.03815555572509766 8.59264850616455078 1.01569449901580811 0 0 0 0 0
6.05943202972412109 8.57584762573242188 0.993626594543457031 0 0 0 0 0
