ply
format ascii 1.0
element vertex 72
property float x
property float y
property float z
property uchar red
property uchar green
property uchar blue
property uchar alpha
property uint label
end_header
6.41812753677368164 7.62359428405761719 1.04946458339691162 255 0 246 108 148
6.45788764953613281 7.63723182678222656 1.01330745220184326 255 0 246 108 148
6.39660787582397461 7.8537144660949707 1.16014671325683594 255 0 246 108 148
6.32491540908813477 7.82700681686401367 1.03737008571624756 255 0 246 108 148
6.3264164924621582 7.84434890747070312 1.0972830057144165 255 0 246 108 148
6.32023525238037109 7.84533357620239258 1.05972850322723389 255 0 246 108 148
6.33991861343383789 7.85477733612060547 1.15489208698272705 255 0 246 108 148
6.35194253921508789 7.84655857086181641 1.16808426380157471 255 0 246 108 148
6.38066720962524414 7.86099100112915039 1.15722763538360596 255 0 246 108 148
6.33325815200805664 7.60027790069580078 1.05647897720336914 255 0 246 108 148
6.33951663970947266 7.61046743392944336 1.11195075511932373 255 0 246 108 148
6.37815570831298828 7.61529827117919922 1.085563063621521 255 0 246 108 148
6.23256015777587891 7.80679941177368164 1.08740973472595215 255 0 246 108 148
6.22781658172607422 7.79929256439208984 1.04472970962524414 255 0 246 108 148
6.24516820907592773 7.81290292739868164 1.13725149631500244 255 0 246 108 148
6.24137544631958008 7.79548740386962891 1.14967787265777588 255 0 246 108 148
6.25730276107788086 7.79001760482788086 1.16594350337982178 255 0 246 108 148
6.28593826293945312 7.75581693649291992 1.16892802715301514 255 0 246 108 148
6.28206443786621094 7.79210567474365234 1.17351925373077393 255 0 246 108 148
6.26593494415283203 7.81221151351928711 1.16663944721221924 255 0 246 108 148
6.38571786880493164 7.8161768913269043 1.16858243942260742 255 0 246 108 148
6.25683212280273438 7.70984363555908203 1.05656242370605469 255 0 246 108 148
6.22811365127563477 7.79441452026367188 1.08324289321899414 255 0 246 108 148
6.27038240432739258 7.74322319030761719 1.16509950160980225 255 0 246 108 148
6.26790952682495117 7.71626377105712891 1.15450096130371094 255 0 246 108 148
6.26853609085083008 7.68060159683227539 1.11750006675720215 255 0 246 108 148
6.30133199691772461 7.65275096893310547 1.16504871845245361 255 0 246 108 148
6.47043371200561523 7.66083240509033203 1.1317821741104126 255 0 246 108 148
6.40744972229003906 7.64281749725341797 1.12434768676757812 255 0 246 108 148
6.42053127288818359 7.62696743011474609 1.15534722805023193 255 0 246 108 148
6.42273426055908203 7.64416694641113281 1.16609346866607666 255 0 246 108 148
6.42161703109741211 7.68381023406982422 1.16802370548248291 255 0 246 108 148
6.43081426620483398 7.63989734649658203 1.1428145170211792 255 0 246 108 148
6.44438505172729492 7.6350102424621582 1.0788877010345459 255 0 246 108 148
6.40720176696777344 7.63560152053833008 1.10458540916442871 255 0 246 108 148
6.48114395141601562 7.65431737899780273 1.1036841869354248 255 0 246 108 148
6.33953714370727539 7.82425737380981445 1.17131876945495605 255 0 246 108 148
6.37591218948364258 7.60324716567993164 1.02539241313934326 255 0 246 108 148
6.33165884017944336 7.84864377975463867 1.12058389186859131 255 0 246 108 148
6.30355310440063477 7.84357070922851562 1.15573632717132568 255 0 246 108 148
6.28576278686523438 7.85645866394042969 1.12946760654449463 255 0 246 108 148
6.26977872848510742 7.85448980331420898 1.02435779571533203 255 0 246 108 148
6.27097368240356445 7.84987306594848633 1.07153379917144775 255 0 246 108 148
6.29093551635742188 7.85809707641601562 1.0849916934967041 255 0 246 108 148
6.28156042098999023 7.68237113952636719 1.00431466102600098 255 0 246 108 148
6.27565717697143555 7.66493511199951172 1.02433431148529053 255 0 246 108 148
6.26130533218383789 7.74742364883422852 1.00508391857147217 255 0 246 108 148
6.29869842529296875 7.60388326644897461 1.07024574279785156 255 0 246 108 148
6.2828679084777832 7.62682676315307617 1.08529722690582275 255 0 246 108 148
6.29114818572998047 7.61492395401000977 1.10714924335479736 255 0 246 108 148
6.30486822128295898 7.60488653182983398 1.10524821281433105 255 0 246 108 148
6.4127497673034668 7.76971530914306641 1.168343186378479 255 0 246 108 148
6.31308937072753906 7.75288200378417969 1.1711575984954834 255 0 246 108 148
6.38362455368041992 7.64769935607910156 1.17078638076782227 255 0 246 108 148
6.3882594108581543 7.70477056503295898 1.17010283470153809 255 0 246 108 148
6.43801975250244141 7.72800683975219727 1.15980947017669678 255 0 246 108 148
6.45806884765625 7.6826176643371582 1.1596221923828125 255 0 246 108 148
6.32473230361938477 7.82600498199462891 1.07097375392913818 255 0 246 108 148
6.2352294921875 7.79272890090942383 1.12721061706542969 255 0 246 108 148
6.32150936126708984 7.66475439071655273 1.1693185567855835 255 0 246 108 148
6.3295130729675293 7.61891412734985352 1.17084872722625732 255 0 246 108 148
6.37884902954101562 7.61848545074462891 1.16362178325653076 255 0 246 108 148
6.37482213973999023 7.62161588668823242 1.13182199001312256 255 0 246 108 148
6.23515892028808594 7.80007696151733398 1.00591421127319336 255 0 246 108 148
6.24335908889770508 7.82627201080322266 1.01822614669799805 255 0 246 108 148
6.24638271331787109 7.75220060348510742 1.0262833833694458 255 0 246 108 148
6.30865764617919922 7.61246252059936523 1.14688503742218018 255 0 246 108 148
6.29613208770751953 7.62747478485107422 1.15303313732147217 255 0 246 108 148
6.28055763244628906 7.64840936660766602 1.01888823509216309 255 0 246 108 148
6.29481744766235352 7.61634254455566406 1.01406610012054443 255 0 246 108 148
6.31393098831176758 7.84711360931396484 1.01793110370635986 255 0 246 108 148
6.28858280181884766 7.85978031158447266 1.04057347774505615 255 0 246 108 148
