ply
format ascii 1.0
element vertex 224
property float x
property float y
property float z
property uchar red
property uchar green
property uchar blue
property uchar alpha
property uint label
end_header
6.23002958297729492 7.15394830703735352 1.49371647834777832 255 0 246 197 59
6.21266412734985352 7.17977762222290039 1.48501825332641602 255 0 246 197 59
6.14574527740478516 7.38764762878417969 1.50315558910369873 255 0 246 197 59
6.17500114440917969 7.43790340423583984 1.50430464744567871 255 0 246 197 59
6.16416501998901367 7.32133245468139648 1.49320340156555176 255 0 246 197 59
6.14453411102294922 7.37455224990844727 1.49426865577697754 255 0 246 197 59
6.15822219848632812 7.3642725944519043 1.50496697425842285 255 0 246 197 59
6.21062135696411133 7.19472217559814453 1.49609291553497314 255 0 246 197 59
6.18906116485595703 7.245513916015625 1.49411368370056152 255 0 246 197 59
6.2384648323059082 7.08175468444824219 1.49333727359771729 255 0 246 197 59
6.26408052444458008 7.07190132141113281 1.50446295738220215 255 0 246 197 59
6.16377782821655273 7.4813690185546875 1.48443007469177246 255 0 246 197 59
6.20435523986816406 7.45332717895507812 1.50658750534057617 255 0 246 197 59
6.22597789764404297 7.46174955368041992 1.4999387264251709 255 0 246 197 59
6.20655632019042969 7.48596715927124023 1.49722027778625488 255 0 246 197 59
6.18278837203979492 7.49218511581420898 1.49531185626983643 255 0 246 197 59
6.23344278335571289 7.05347871780395508 1.62749385833740234 255 0 246 197 59
6.22845029830932617 7.09546613693237305 1.73729503154754639 255 0 246 197 59
6.22034740447998047 7.07284355163574219 1.68732988834381104 255 0 246 197 59
6.23437070846557617 7.06621360778808594 1.77097952365875244 255 0 246 197 59
6.2334742546081543 6.99706077575683594 1.54044389724731445 255 0 246 197 59
6.15282344818115234 7.29593133926391602 1.75290703773498535 255 0 246 197 59
6.20882797241210938 7.14420461654663086 1.57172489166259766 255 0 246 197 59
6.22478437423706055 7.1068878173828125 1.55590486526489258 255 0 246 197 59
6.18541574478149414 7.20022916793823242 1.53936433792114258 255 0 246 197 59
6.19643068313598633 7.18238067626953125 1.5274280309677124 255 0 246 197 59
6.21783590316772461 7.19054460525512695 1.51462602615356445 255 0 246 197 59
6.22126245498657227 7.11662578582763672 1.52597653865814209 255 0 246 197 59
6.20543050765991211 7.14162635803222656 1.54020905494689941 255 0 246 197 59
6.20702886581420898 7.44906139373779297 1.51905131340026855 255 0 246 197 59
6.17390346527099609 7.45029306411743164 1.51490437984466553 255 0 246 197 59
6.15366125106811523 7.49733781814575195 1.518654465675354 255 0 246 197 59
6.10596656799316406 7.46191787719726562 1.58985471725463867 255 0 246 197 59
6.09706354141235352 7.44640254974365234 1.61831557750701904 255 0 246 197 59
6.10772323608398438 7.4653778076171875 1.65680480003356934 255 0 246 197 59
6.13056039810180664 7.49566555023193359 1.62452757358551025 255 0 246 197 59
6.11568260192871094 7.37837123870849609 1.53491771221160889 255 0 246 197 59
6.10935592651367188 7.39349222183227539 1.54435741901397705 255 0 246 197 59
6.09586858749389648 7.43367862701416016 1.53544175624847412 255 0 246 197 59
6.16920804977416992 7.33369064331054688 1.5074312686920166 255 0 246 197 59
6.09472942352294922 7.43488788604736328 1.59808743000030518 255 0 246 197 59
6.11145687103271484 7.44043350219726562 1.52453088760375977 255 0 246 197 59
6.12527132034301758 7.4083714485168457 1.52280592918395996 255 0 246 197 59
6.15407037734985352 7.29611682891845703 1.72624993324279785 255 0 246 197 59
6.1698145866394043 7.29787683486938477 1.50763106346130371 255 0 246 197 59
6.22154998779296875 7.11187553405761719 1.59724438190460205 255 0 246 197 59
6.21088361740112305 7.14651203155517578 1.62208116054534912 255 0 246 197 59
6.22447872161865234 6.91955375671386719 1.52087593078613281 255 0 246 197 59
6.25002098083496094 7.02541065216064453 1.74804627895355225 255 0 246 197 59
6.2512822151184082 7.01672697067260742 1.78499019145965576 255 0 246 197 59
6.25408267974853516 6.94810771942138672 1.57548916339874268 255 0 246 197 59
6.24619531631469727 6.93182945251464844 1.55281746387481689 255 0 246 197 59
6.11411714553833008 7.39541053771972656 1.57509136199951172 255 0 246 197 59
6.11171245574951172 7.40499973297119141 1.671875 255 0 246 197 59
6.12465715408325195 7.37359333038330078 1.64265632629394531 255 0 246 197 59
6.23392820358276367 7.05397748947143555 1.69548642635345459 255 0 246 197 59
6.14225244522094727 7.39760923385620117 1.51625561714172363 255 0 246 197 59
6.24358654022216797 7.03783845901489258 1.52571451663970947 255 0 246 197 59
6.24743795394897461 7.00984954833984375 1.55680954456329346 255 0 246 197 59
6.25304841995239258 6.96509599685668945 1.54897427558898926 255 0 246 197 59
6.24330425262451172 6.99429702758789062 1.5736922025680542 255 0 246 197 59
6.25059843063354492 6.98385143280029297 1.5904918909072876 255 0 246 197 59
6.25113153457641602 7.02216720581054688 1.59307074546813965 255 0 246 197 59
6.10161876678466797 7.45743274688720703 1.72013556957244873 255 0 246 197 59
6.09662485122680664 7.43457508087158203 1.71578681468963623 255 0 246 197 59
6.12938833236694336 7.49486398696899414 1.74448251724243164 255 0 246 197 59
6.21061086654663086 7.14252710342407227 1.75483989715576172 255 0 246 197 59
6.26428794860839844 7.04890298843383789 1.51047599315643311 255 0 246 197 59
6.10276651382446289 7.44256782531738281 1.76532840728759766 255 0 246 197 59
6.12010669708251953 7.39616918563842773 1.77450168132781982 255 0 246 197 59
6.15294456481933594 7.28121376037597656 1.54498744010925293 255 0 246 197 59
6.14963769912719727 7.30525398254394531 1.52418220043182373 255 0 246 197 59
6.12880849838256836 7.37198686599731445 1.52254569530487061 255 0 246 197 59
6.13052892684936523 7.48827838897705078 1.54778921604156494 255 0 246 197 59
6.15209436416625977 7.51495981216430664 1.54031217098236084 255 0 246 197 59
6.10759687423706055 7.45688867568969727 1.53751218318939209 255 0 246 197 59
6.12675094604492188 7.4613189697265625 1.52133512496948242 255 0 246 197 59
6.18985795974731445 7.1990666389465332 1.58264398574829102 255 0 246 197 59
6.16029453277587891 7.2786107063293457 1.62875008583068848 255 0 246 197 59
6.1867976188659668 7.20763158798217773 1.64933586120605469 255 0 246 197 59
6.18118000030517578 7.21131515502929688 1.77434813976287842 255 0 246 197 59
6.2173614501953125 7.12486743927001953 1.68346738815307617 255 0 246 197 59
6.18659782409667969 7.20962429046630859 1.72665882110595703 255 0 246 197 59
6.24455165863037109 7.02300500869750977 1.62696719169616699 255 0 246 197 59
6.24625921249389648 7.02131175994873047 1.66489195823669434 255 0 246 197 59
6.13658618927001953 7.34015607833862305 1.59218740463256836 255 0 246 197 59
6.15597057342529297 7.27503299713134766 1.53504467010498047 255 0 246 197 59
6.18636751174926758 7.25403118133544922 1.50639021396636963 255 0 246 197 59
6.17357206344604492 7.24544954299926758 1.52390635013580322 255 0 246 197 59
6.20933771133422852 7.21682119369506836 1.50549614429473877 255 0 246 197 59
6.22093009948730469 7.0783534049987793 1.60180723667144775 255 0 246 197 59
6.20663166046142578 6.97150278091430664 1.50582778453826904 255 0 246 197 59
6.12487602233886719 7.37374973297119141 1.73562502861022949 255 0 246 197 59
6.24857902526855469 7.11511373519897461 1.50536155700683594 255 0 246 197 59
6.24117946624755859 7.17040491104125977 1.5043342113494873 255 0 246 197 59
6.24081802368164062 7.08290338516235352 1.52562212944030762 255 0 246 197 59
6.24653148651123047 7.03088855743408203 1.56995761394500732 255 0 246 197 59
6.23503589630126953 7.05902194976806641 1.58067309856414795 255 0 246 197 59
6.2559971809387207 7.09363412857055664 1.51491928100585938 255 0 246 197 59
6.23952865600585938 7.12827825546264648 1.51568102836608887 255 0 246 197 59
6.24845123291015625 7.01694869995117188 1.72467100620269775 255 0 246 197 59
6.21524763107299805 7.07932615280151367 1.64528214931488037 255 0 246 197 59
6.22080516815185547 7.10759973526000977 1.65009546279907227 255 0 246 197 59
6.13672161102294922 7.34345531463623047 1.77217268943786621 255 0 246 197 59
6.14386653900146484 7.31153011322021484 1.77318489551544189 255 0 246 197 59
6.16045904159545898 7.26856756210327148 1.77597939968109131 255 0 246 197 59
6.1226806640625 7.48631811141967773 1.74300408363342285 255 0 246 197 59
6.12277317047119141 7.47628021240234375 1.76727533340454102 255 0 246 197 59
6.17371082305908203 7.52388381958007812 1.54503524303436279 255 0 246 197 59
6.19408464431762695 7.50758600234985352 1.53452920913696289 255 0 246 197 59
6.17661190032958984 7.53260087966918945 1.58531177043914795 255 0 246 197 59
6.17393684387207031 7.50976181030273438 1.5336151123046875 255 0 246 197 59
6.14473152160644531 7.5142664909362793 1.60842382907867432 255 0 246 197 59
6.15945529937744141 7.52396011352539062 1.77272331714630127 255 0 246 197 59
6.15471124649047852 7.52091598510742188 1.58350479602813721 255 0 246 197 59
6.14503383636474609 7.51751279830932617 1.6949915885925293 255 0 246 197 59
6.15484046936035156 7.53049182891845703 1.74744200706481934 255 0 246 197 59
6.14303350448608398 7.51059913635253906 1.75897085666656494 255 0 246 197 59
6.25394105911254883 7.45323610305786133 1.87734842300415039 255 0 246 197 59
6.25345945358276367 7.48275899887084961 1.89022088050842285 255 0 246 197 59
6.24013233184814453 7.06810522079467773 1.78497636318206787 255 0 246 197 59
6.52545261383056641 7.29810714721679688 1.92518460750579834 255 0 246 197 59
6.54067277908325195 7.3611598014831543 1.92484796047210693 255 0 246 197 59
6.17323780059814453 7.25651073455810547 1.78949165344238281 255 0 246 197 59
6.18478059768676758 7.22005367279052734 1.78430187702178955 255 0 246 197 59
6.21241044998168945 7.19290542602539062 1.79528212547302246 255 0 246 197 59
6.19800758361816406 7.23586273193359375 1.79538846015930176 255 0 246 197 59
6.24386215209960938 7.27812623977661133 1.80851542949676514 255 0 246 197 59
6.26209878921508789 7.23400306701660156 1.80823397636413574 255 0 246 197 59
6.23561763763427734 7.36299896240234375 1.84918928146362305 255 0 246 197 59
6.21614503860473633 7.41902399063110352 1.85754454135894775 255 0 246 197 59
6.19778728485107422 7.41241168975830078 1.83036518096923828 255 0 246 197 59
6.48513889312744141 7.41099691390991211 1.87659704685211182 255 0 246 197 59
6.51145315170288086 7.43152618408203125 1.87563860416412354 255 0 246 197 59
6.49104404449462891 7.40908479690551758 1.85066616535186768 255 0 246 197 59
6.37180280685424805 7.4460906982421875 1.87533199787139893 255 0 246 197 59
6.34918642044067383 7.46471452713012695 1.88968575000762939 255 0 246 197 59
6.33869791030883789 7.47833347320556641 1.88602638244628906 255 0 246 197 59
6.38106107711791992 7.49350214004516602 1.90977263450622559 255 0 246 197 59
6.33627080917358398 7.10673189163208008 1.82115042209625244 255 0 246 197 59
6.31675386428833008 7.06318521499633789 1.81284892559051514 255 0 246 197 59
6.16392803192138672 7.3010563850402832 1.78705239295959473 255 0 246 197 59
6.22560834884643555 7.31821298599243164 1.81464648246765137 255 0 246 197 59
6.21710729598999023 7.34023094177246094 1.82685315608978271 255 0 246 197 59
6.211761474609375 7.29721546173095703 1.80784487724304199 255 0 246 197 59
6.20110416412353516 7.42786216735839844 1.84734630584716797 255 0 246 197 59
6.21674108505249023 7.479034423828125 1.86896002292633057 255 0 246 197 59
6.2009587287902832 7.48553133010864258 1.85204231739044189 255 0 246 197 59
6.28504228591918945 7.35428333282470703 1.82949137687683105 255 0 246 197 59
6.35646867752075195 7.13857889175415039 1.83217549324035645 255 0 246 197 59
6.33169794082641602 7.16343402862548828 1.83056879043579102 255 0 246 197 59
6.1593475341796875 7.44395065307617188 1.8020169734954834 255 0 246 197 59
6.18127632141113281 7.43647289276123047 1.81580615043640137 255 0 246 197 59
6.19536304473876953 7.45547914505004883 1.81752777099609375 255 0 246 197 59
6.20924520492553711 7.52001094818115234 1.82575857639312744 255 0 246 197 59
6.1761627197265625 7.45743322372436523 1.80546033382415771 255 0 246 197 59
6.17834568023681641 7.49645853042602539 1.78599965572357178 255 0 246 197 59
6.17009305953979492 7.39275884628295898 1.80551409721374512 255 0 246 197 59
6.15547466278076172 7.34182643890380859 1.79255390167236328 255 0 246 197 59
6.19770240783691406 7.34111356735229492 1.81570267677307129 255 0 246 197 59
6.21038389205932617 7.36672353744506836 1.84429037570953369 255 0 246 197 59
6.21188211441040039 7.133148193359375 1.7832648754119873 255 0 246 197 59
6.19677448272705078 7.16715097427368164 1.78023815155029297 255 0 246 197 59
6.22093439102172852 7.14683675765991211 1.7967371940612793 255 0 246 197 59
6.35681724548339844 7.39623594284057617 1.85740065574645996 255 0 246 197 59
6.40570545196533203 7.39835453033447266 1.87814080715179443 255 0 246 197 59
6.39745044708251953 7.36205863952636719 1.84221732616424561 255 0 246 197 59
6.32390499114990234 7.37797403335571289 1.84728384017944336 255 0 246 197 59
6.36629819869995117 7.36667776107788086 1.83843719959259033 255 0 246 197 59
6.38311243057250977 7.4145197868347168 1.86042344570159912 255 0 246 197 59
6.37984895706176758 7.39898538589477539 1.86329317092895508 255 0 246 197 59
6.32559967041015625 7.36411190032958984 1.82954788208007812 255 0 246 197 59
6.14437770843505859 7.36869955062866211 1.78504025936126709 255 0 246 197 59
6.13234901428222656 7.40639257431030273 1.78760385513305664 255 0 246 197 59
6.27646684646606445 7.08142757415771484 1.80542480945587158 255 0 246 197 59
6.24326229095458984 7.10902261734008789 1.79559612274169922 255 0 246 197 59
6.27942991256713867 7.05372810363769531 1.80470907688140869 255 0 246 197 59
6.53580617904663086 7.40675115585327148 1.92333590984344482 255 0 246 197 59
6.49826288223266602 7.38881397247314453 1.93306362628936768 255 0 246 197 59
6.51958036422729492 7.41781330108642578 1.91824007034301758 255 0 246 197 59
6.23558187484741211 7.33665370941162109 1.81642615795135498 255 0 246 197 59
6.42721223831176758 7.37338876724243164 1.84461688995361328 255 0 246 197 59
6.46117115020751953 7.39855480194091797 1.86996448040008545 255 0 246 197 59
6.41984319686889648 7.41718626022338867 1.92440128326416016 255 0 246 197 59
6.38874387741088867 7.44626331329345703 1.8977503776550293 255 0 246 197 59
6.48036575317382812 7.40333843231201172 1.90349185466766357 255 0 246 197 59
6.42406988143920898 7.37817955017089844 1.87255799770355225 255 0 246 197 59
6.44701147079467773 7.38363504409790039 1.91466677188873291 255 0 246 197 59
6.13905048370361328 7.48598480224609375 1.7929069995880127 255 0 246 197 59
6.11114406585693359 7.44775581359863281 1.7775346040725708 255 0 246 197 59
6.26000785827636719 7.18185615539550781 1.80964446067810059 255 0 246 197 59
6.26948213577270508 7.16595220565795898 1.81830728054046631 255 0 246 197 59
6.26774311065673828 7.13551473617553711 1.814170241355896 255 0 246 197 59
6.30388307571411133 7.12810659408569336 1.819022536277771 255 0 246 197 59
6.29791069030761719 7.18294239044189453 1.82923376560211182 255 0 246 197 59
6.22873210906982422 7.39464616775512695 1.86230003833770752 255 0 246 197 59
6.2681884765625 7.39712667465209961 1.86627292633056641 255 0 246 197 59
6.31467866897583008 7.39552211761474609 1.86006510257720947 255 0 246 197 59
6.25957918167114258 7.40870141983032227 1.87921082973480225 255 0 246 197 59
6.27317953109741211 7.46171331405639648 1.88616371154785156 255 0 246 197 59
6.39986419677734375 7.47053146362304688 1.92530572414398193 255 0 246 197 59
6.39670228958129883 7.52655172348022461 1.90567398071289062 255 0 246 197 59
6.17552089691162109 7.55440378189086914 1.75809288024902344 255 0 246 197 59
6.17872047424316406 7.53187942504882812 1.79061377048492432 255 0 246 197 59
6.40109682083129883 7.51558303833007812 1.92025172710418701 255 0 246 197 59
6.40343809127807617 7.49738121032714844 1.93718218803405762 255 0 246 197 59
6.15260982513427734 7.50051355361938477 1.79918825626373291 255 0 246 197 59
6.55604314804077148 7.29986429214477539 1.92449784278869629 255 0 246 197 59
6.60533905029296875 7.29533052444458008 1.91518044471740723 255 0 246 197 59
6.62519073486328125 7.25967979431152344 1.88236415386199951 255 0 246 197 59
6.62938976287841797 7.23575735092163086 1.91362118721008301 255 0 246 197 59
6.59737014770507812 7.33351802825927734 1.90407061576843262 255 0 246 197 59
6.59787130355834961 7.33470582962036133 1.88078343868255615 255 0 246 197 59
6.61152458190917969 7.29490518569946289 1.88164710998535156 255 0 246 197 59
6.5804448127746582 7.37626457214355469 1.87649345397949219 255 0 246 197 59
6.57061958312988281 7.40297126770019531 1.90138280391693115 255 0 246 197 59
6.56428909301757812 7.42255687713623047 1.87209129333496094 255 0 246 197 59
6.54992198944091797 7.43941688537597656 1.91347944736480713 255 0 246 197 59
6.55370664596557617 7.44603633880615234 1.87378835678100586 255 0 246 197 59
6.57215261459350586 7.35428619384765625 1.9194939136505127 255 0 246 197 59
6.57139062881469727 7.38652658462524414 1.91545784473419189 255 0 246 197 59
6.6146693229675293 7.22966957092285156 1.91832077503204346 255 0 246 197 59
6.55587673187255859 7.227081298828125 1.92290675640106201 255 0 246 197 59
6.59710121154785156 7.27068185806274414 1.91985428333282471 255 0 246 197 59
