ply
format ascii 1.0
element vertex 592
property float x
property float y
property float z
property uchar red
property uchar green
property uchar blue
property uchar alpha
property uint label
end_header
3.87129998207092285 0.661396622657775879 1.42632448673248291 255 166 254 235 21
3.91190671920776367 0.690381050109863281 1.01243937015533447 255 166 254 235 21
3.87900876998901367 0.69590306282043457 1.0976792573928833 255 166 254 235 21
3.83733463287353516 0.679681479930877686 1.05141997337341309 255 166 254 235 21
3.85883784294128418 0.688113987445831299 1.06985938549041748 255 166 254 235 21
3.90465021133422852 0.685784339904785156 1.4532172679901123 255 166 254 235 21
3.89600515365600586 0.670923948287963867 1.48187518119812012 255 166 254 235 21
3.87471723556518555 0.652719199657440186 1.47083055973052979 255 166 254 235 21
3.81590151786804199 0.663514018058776855 1.01270341873168945 255 166 254 235 21
3.83956432342529297 0.654130339622497559 1.29379034042358398 255 166 254 235 21
3.86401748657226562 0.660306394100189209 1.31275415420532227 255 166 254 235 21
3.87188458442687988 0.6670723557472229 1.34383416175842285 255 166 254 235 21
3.91014909744262695 0.691499888896942139 1.33496499061584473 255 166 254 235 21
3.90432953834533691 0.693371474742889404 1.27998292446136475 255 166 254 235 21
3.9259181022644043 0.697211205959320068 1.46502363681793213 255 166 254 235 21
3.91481137275695801 0.725248634815216064 1.08760666847229004 255 166 254 235 21
3.93869829177856445 0.761442065238952637 1.10905253887176514 255 166 254 235 21
3.81171321868896484 0.663253426551818848 1.21549534797668457 255 166 254 235 21
3.90833830833435059 0.720354199409484863 1.12409639358520508 255 166 254 235 21
3.90942955017089844 0.711890459060668945 1.16606438159942627 255 166 254 235 21
3.95584750175476074 0.74466252326965332 1.38533294200897217 255 166 254 235 21
3.91898632049560547 0.694827914237976074 1.41657888889312744 255 166 254 235 21
3.96459674835205078 0.748834371566772461 1.42074358463287354 255 166 254 235 21
3.93634939193725586 0.71224445104598999 1.38597941398620605 255 166 254 235 21
3.83698439598083496 0.673070132732391357 1.12486767768859863 255 166 254 235 21
3.86136364936828613 0.679102122783660889 1.11106491088867188 255 166 254 235 21
3.88366484642028809 0.680811822414398193 1.20200979709625244 255 166 254 235 21
3.88329148292541504 0.692870140075683594 1.15793526172637939 255 166 254 235 21
3.93975090980529785 0.709389090538024902 1.51729333400726318 255 166 254 235 21
3.96805238723754883 0.740705609321594238 1.51338160037994385 255 166 254 235 21
3.94117426872253418 0.702436327934265137 1.58415210247039795 255 166 254 235 21
3.93041896820068359 0.686469614505767822 1.55371832847595215 255 166 254 235 21
3.95971035957336426 0.705638527870178223 1.67002439498901367 255 166 254 235 21
3.98366737365722656 0.733350038528442383 1.66838645935058594 255 166 254 235 21
3.88767170906066895 0.640505969524383545 1.96471214294433594 255 166 254 235 21
3.91271543502807617 0.665310561656951904 1.94492232799530029 255 166 254 235 21
3.91681218147277832 0.686577439308166504 1.51581931114196777 255 166 254 235 21
3.85372257232666016 0.644153475761413574 1.51630973815917969 255 166 254 235 21
3.89454841613769531 0.669618844985961914 1.55999553203582764 255 166 254 235 21
3.8656003475189209 0.654751360416412354 1.57961690425872803 255 166 254 235 21
3.84714174270629883 0.639989674091339111 1.56805038452148438 255 166 254 235 21
3.95331120491027832 0.69974750280380249 1.71088242530822754 255 166 254 235 21
3.93313765525817871 0.683020532131195068 1.69299590587615967 255 166 254 235 21
3.94351768493652344 0.68958437442779541 1.73824703693389893 255 166 254 235 21
3.90772771835327148 0.670986175537109375 1.73311007022857666 255 166 254 235 21
3.93868589401245117 0.676266789436340332 1.96499991416931152 255 166 254 235 21
3.91982507705688477 0.673579692840576172 1.90105628967285156 255 166 254 235 21
3.84163093566894531 0.636228621006011963 1.53741252422332764 255 166 254 235 21
4.00510835647583008 0.727790892124176025 1.83965623378753662 255 166 254 235 21
3.94551372528076172 0.708552062511444092 1.62257015705108643 255 166 254 235 21
3.92490887641906738 0.682464182376861572 1.61059784889221191 255 166 254 235 21
3.98418545722961426 0.728046178817749023 1.7482525110244751 255 166 254 235 21
3.95870161056518555 0.726732969284057617 1.56860947608947754 255 166 254 235 21
3.88579058647155762 0.648270845413208008 1.80358695983886719 255 166 254 235 21
3.88266897201538086 0.655110836029052734 1.76543200016021729 255 166 254 235 21
3.85760140419006348 0.638211607933044434 1.79678595066070557 255 166 254 235 21
3.91652655601501465 0.67204737663269043 1.80727148056030273 255 166 254 235 21
3.88999438285827637 0.668047010898590088 1.70163893699645996 255 166 254 235 21
3.85245800018310547 0.643264651298522949 1.75747859477996826 255 166 254 235 21
3.8565363883972168 0.635407507419586182 1.66603410243988037 255 166 254 235 21
3.86913394927978516 0.647704064846038818 1.72329270839691162 255 166 254 235 21
3.89397335052490234 0.64667820930480957 1.83668899536132812 255 166 254 235 21
3.89427018165588379 0.6727256178855896 1.6085052490234375 255 166 254 235 21
3.92078065872192383 0.686276435852050781 1.64259529113769531 255 166 254 235 21
3.85845422744750977 0.642332017421722412 1.62242424488067627 255 166 254 235 21
3.89148497581481934 0.672233641147613525 1.65650439262390137 255 166 254 235 21
3.98245143890380859 0.736975312232971191 1.71642601490020752 255 166 254 235 21
3.97506451606750488 0.688883006572723389 1.92549777030944824 255 166 254 235 21
3.97685694694519043 0.693873047828674316 1.87077593803405762 255 166 254 235 21
3.91802167892456055 0.669513404369354248 1.86488771438598633 255 166 254 235 21
3.94999980926513672 0.681560993194580078 1.85124993324279785 255 166 254 235 21
3.9149785041809082 0.666644036769866943 2.00163650512695312 255 166 254 235 21
3.89108562469482422 0.640950560569763184 2.02208662033081055 255 166 254 235 21
3.96473956108093262 0.686777412891387939 1.81870543956756592 255 166 254 235 21
3.99170279502868652 0.71782761812210083 1.79599130153656006 255 166 254 235 21
3.9134523868560791 0.677489578723907471 1.76162004470825195 255 166 254 235 21
3.96134448051452637 0.703854560852050781 1.7542412281036377 255 166 254 235 21
3.09400057792663574 0.38001096248626709 2.03194355964660645 255 166 254 235 21
3.06720590591430664 0.356272459030151367 2.05134010314941406 255 166 254 235 21
3.07303047180175781 0.378662526607513428 1.79802095890045166 255 166 254 235 21
3.13112378120422363 0.386763006448745728 2.11179828643798828 255 166 254 235 21
3.15115785598754883 0.387451887130737305 2.10493206977844238 255 166 254 235 21
3.10094118118286133 0.380636870861053467 2.11079597473144531 255 166 254 235 21
3.14104533195495605 0.389674127101898193 2.03418898582458496 255 166 254 235 21
3.15429377555847168 0.397782802581787109 2.04352021217346191 255 166 254 235 21
3.04954385757446289 0.35373571515083313 2.1754157543182373 255 166 254 235 21
3.1134333610534668 0.387592911720275879 1.98172426223754883 255 166 254 235 21
3.14465641975402832 0.393044322729110718 1.97945618629455566 255 166 254 235 21
3.14188957214355469 0.390440285205841064 1.93913173675537109 255 166 254 235 21
3.15971851348876953 0.427245855331420898 1.88534975051879883 255 166 254 235 21
3.13921642303466797 0.396759599447250366 1.8817373514175415 255 166 254 235 21
3.06057262420654297 0.358887046575546265 1.93307757377624512 255 166 254 235 21
3.11264300346374512 0.386276364326477051 1.89107751846313477 255 166 254 235 21
3.09500002861022949 0.380040079355239868 1.93999993801116943 255 166 254 235 21
3.0894770622253418 0.375965744256973267 1.99250125885009766 255 166 254 235 21
3.05803704261779785 0.354827374219894409 1.97751045227050781 255 166 254 235 21
3.15154337882995605 0.429003298282623291 1.83997857570648193 255 166 254 235 21
3.1304171085357666 0.402481377124786377 1.83654105663299561 255 166 254 235 21
3.17429351806640625 0.426022052764892578 1.95976877212524414 255 166 254 235 21
3.16514778137207031 0.419313520193099976 1.96042895317077637 255 166 254 235 21
3.15816354751586914 0.404808968305587769 2.0028541088104248 255 166 254 235 21
3.06266951560974121 0.360528349876403809 1.88289809226989746 255 166 254 235 21
3.08898544311523438 0.377257078886032104 1.89306640625 255 166 254 235 21
3.09784531593322754 0.389642715454101562 1.83736741542816162 255 166 254 235 21
3.092193603515625 0.376641839742660522 2.07783317565917969 255 166 254 235 21
3.11086821556091309 0.386064738035202026 2.04531645774841309 255 166 254 235 21
3.07024955749511719 0.358402162790298462 2.11322140693664551 255 166 254 235 21
3.10949802398681641 0.386112332344055176 2.15587973594665527 255 166 254 235 21
3.67150497436523438 0.689869999885559082 1.39094710350036621 255 166 254 235 21
3.60391926765441895 0.607913553714752197 1.53563022613525391 255 166 254 235 21
3.60045385360717773 0.624134659767150879 1.43214428424835205 255 166 254 235 21
3.54068398475646973 0.627816915512084961 1.19868671894073486 255 166 254 235 21
3.60295867919921875 0.642478346824645996 1.27785170078277588 255 166 254 235 21
3.68334102630615234 0.707044422626495361 1.22608447074890137 255 166 254 235 21
3.64684581756591797 0.686995267868041992 1.28336918354034424 255 166 254 235 21
3.66057467460632324 0.687956035137176514 1.33507418632507324 255 166 254 235 21
3.60526919364929199 0.631363749504089355 1.35438919067382812 255 166 254 235 21
3.65906262397766113 0.695177733898162842 1.29400539398193359 255 166 254 235 21
3.63113093376159668 0.645012736320495605 1.31217575073242188 255 166 254 235 21
3.64150834083557129 0.689431726932525635 1.24239468574523926 255 166 254 235 21
3.63431978225708008 0.689899861812591553 1.21789848804473877 255 166 254 235 21
3.64631080627441406 0.708173274993896484 1.187430739402771 255 166 254 235 21
3.6243901252746582 0.670475602149963379 1.22449195384979248 255 166 254 235 21
3.62285232543945312 0.657014548778533936 1.27633857727050781 255 166 254 235 21
3.59851884841918945 0.643981099128723145 1.23420202732086182 255 166 254 235 21
3.62172698974609375 0.666287481784820557 1.19374954700469971 255 166 254 235 21
3.67336487770080566 0.721875786781311035 1.14323484897613525 255 166 254 235 21
3.66650795936584473 0.68134605884552002 1.43553531169891357 255 166 254 235 21
3.61367297172546387 0.627302467823028564 1.4052882194519043 255 166 254 235 21
3.63586807250976562 0.652410805225372314 1.35779392719268799 255 166 254 235 21
3.65322446823120117 0.675987422466278076 1.35957658290863037 255 166 254 235 21
3.6545710563659668 0.675070405006408691 1.39671194553375244 255 166 254 235 21
3.63486027717590332 0.642682075500488281 1.39069068431854248 255 166 254 235 21
3.5553276538848877 0.626146018505096436 1.28558063507080078 255 166 254 235 21
3.59407258033752441 0.629279196262359619 1.31856441497802734 255 166 254 235 21
3.68356609344482422 0.703428089618682861 1.27231955528259277 255 166 254 235 21
3.63643121719360352 0.650078952312469482 1.43531811237335205 255 166 254 235 21
3.66382002830505371 0.679562747478485107 1.48868453502655029 255 166 254 235 21
3.60514926910400391 0.619428277015686035 1.46750879287719727 255 166 254 235 21
3.65346598625183105 0.672490239143371582 1.45378708839416504 255 166 254 235 21
3.63858294486999512 0.634951770305633545 1.49105465412139893 255 166 254 235 21
3.5812225341796875 0.63260728120803833 1.20661425590515137 255 166 254 235 21
3.51410269737243652 0.544021189212799072 1.49181735515594482 255 166 254 235 21
3.58909130096435547 0.660245597362518311 1.16227614879608154 255 166 254 235 21
3.55507683753967285 0.645842432975769043 1.16201567649841309 255 166 254 235 21
3.68145656585693359 0.720442295074462891 1.07984471321105957 255 166 254 235 21
3.54988861083984375 0.603576958179473877 1.44057857990264893 255 166 254 235 21
3.56418251991271973 0.627825379371643066 1.34103751182556152 255 166 254 235 21
3.58799290657043457 0.625899195671081543 1.35931217670440674 255 166 254 235 21
3.6603553295135498 0.71292799711227417 1.06095528602600098 255 166 254 235 21
3.62729692459106445 0.70244145393371582 1.07531023025512695 255 166 254 235 21
3.62463879585266113 0.712965071201324463 1.10744917392730713 255 166 254 235 21
3.65203762054443359 0.713715612888336182 1.10604572296142578 255 166 254 235 21
3.57166290283203125 0.6336098313331604 1.25253307819366455 255 166 254 235 21
3.57361626625061035 0.616260111331939697 1.45074093341827393 255 166 254 235 21
3.51931381225585938 0.555894017219543457 1.44773745536804199 255 166 254 235 21
3.54449558258056641 0.601530313491821289 1.4772493839263916 255 166 254 235 21
3.60187435150146484 0.612822413444519043 1.49388456344604492 255 166 254 235 21
3.63926339149475098 0.712883412837982178 1.13159167766571045 255 166 254 235 21
3.52294397354125977 0.554564714431762695 1.41100990772247314 255 166 254 235 21
3.67403268814086914 0.585674762725830078 1.93001973628997803 255 166 254 235 21
3.69054746627807617 0.610169410705566406 1.93727242946624756 255 166 254 235 21
3.67677211761474609 0.582309484481811523 1.98938572406768799 255 166 254 235 21
3.62809205055236816 0.622283697128295898 1.52455794811248779 255 166 254 235 21
3.66828536987304688 0.678227901458740234 1.52311277389526367 255 166 254 235 21
3.65293240547180176 0.655346810817718506 1.56921160221099854 255 166 254 235 21
3.65307474136352539 0.66717219352722168 1.5294959545135498 255 166 254 235 21
3.61735033988952637 0.584008514881134033 1.88140010833740234 255 166 254 235 21
3.65958595275878906 0.575689077377319336 1.93257462978363037 255 166 254 235 21
3.65209555625915527 0.580143928527832031 1.85967481136322021 255 166 254 235 21
3.66612029075622559 0.583955109119415283 1.88312578201293945 255 166 254 235 21
3.56693148612976074 0.595034658908843994 1.63472318649291992 255 166 254 235 21
3.65077853202819824 0.600795626640319824 1.7864614725112915 255 166 254 235 21
3.59466004371643066 0.585111260414123535 1.7807387113571167 255 166 254 235 21
3.65312695503234863 0.588616609573364258 1.82343137264251709 255 166 254 235 21
3.62027859687805176 0.58656156063079834 1.82045853137969971 255 166 254 235 21
3.57156753540039062 0.598970115184783936 1.57100379467010498 255 166 254 235 21
3.55107307434082031 0.596439957618713379 1.51439690589904785 255 166 254 235 21
3.57175302505493164 0.607888400554656982 1.51494383811950684 255 166 254 235 21
3.54787921905517578 0.586974143981933594 1.56353449821472168 255 166 254 235 21
3.52665305137634277 0.563600063323974609 1.5137324333190918 255 166 254 235 21
3.67720246315002441 0.665383994579315186 1.62720787525177002 255 166 254 235 21
3.62968015670776367 0.613991498947143555 1.61681604385375977 255 166 254 235 21
3.62163615226745605 0.596530020236968994 1.66547811031341553 255 166 254 235 21
3.63153839111328125 0.608118116855621338 1.64153218269348145 255 166 254 235 21
3.67747592926025391 0.641119599342346191 1.7433239221572876 255 166 254 235 21
3.6183326244354248 0.575567245483398438 1.93919730186462402 255 166 254 235 21
3.52846789360046387 0.558501064777374268 1.58115792274475098 255 166 254 235 21
3.51190018653869629 0.548021614551544189 1.53671562671661377 255 166 254 235 21
3.68174338340759277 0.609625279903411865 1.88138163089752197 255 166 254 235 21
3.68479418754577637 0.627524137496948242 1.82348155975341797 255 166 254 235 21
3.66854238510131836 0.594468653202056885 1.84249508380889893 255 166 254 235 21
3.57112479209899902 0.592902243137359619 1.67521452903747559 255 166 254 235 21
3.58678555488586426 0.588098704814910889 1.73527920246124268 255 166 254 235 21
3.63386201858520508 0.600271046161651611 1.73125231266021729 255 166 254 235 21
3.65477228164672852 0.627245604991912842 1.7213740348815918 255 166 254 235 21
3.61933326721191406 0.589869201183319092 1.74228751659393311 255 166 254 235 21
3.64968657493591309 0.627723455429077148 1.67889881134033203 255 166 254 235 21
3.63067436218261719 0.596988797187805176 1.69359111785888672 255 166 254 235 21
3.61410164833068848 0.601879417896270752 1.62441408634185791 255 166 254 235 21
3.63170051574707031 0.616875052452087402 1.57832300662994385 255 166 254 235 21
3.6451270580291748 0.638932764530181885 1.60548770427703857 255 166 254 235 21
3.66211652755737305 0.655897200107574463 1.62766730785369873 255 166 254 235 21
3.66972899436950684 0.651761353015899658 1.66078174114227295 255 166 254 235 21
3.28855204582214355 0.441940188407897949 2.07343053817749023 255 166 254 235 21
3.33368253707885742 0.464184284210205078 2.05278253555297852 255 166 254 235 21
3.29586267471313477 0.447192281484603882 2.00480198860168457 255 166 254 235 21
3.3703758716583252 0.466250836849212646 2.11009120941162109 255 166 254 235 21
3.24773693084716797 0.439169824123382568 2.05401778221130371 255 166 254 235 21
3.21657323837280273 0.421985715627670288 2.04369807243347168 255 166 254 235 21
3.17675900459289551 0.422472923994064331 2.03403091430664062 255 166 254 235 21
3.36885476112365723 0.467931121587753296 2.15069007873535156 255 166 254 235 21
3.30381941795349121 0.440906494855880737 2.18732428550720215 255 166 254 235 21
3.25214505195617676 0.432526677846908569 2.17646050453186035 255 166 254 235 21
3.33669495582580566 0.46355167031288147 2.1644585132598877 255 166 254 235 21
3.19804978370666504 0.433847099542617798 1.87320613861083984 255 166 254 235 21
3.21598124504089355 0.431027531623840332 1.92219722270965576 255 166 254 235 21
3.24580550193786621 0.442288905382156372 1.91500568389892578 255 166 254 235 21
3.33338713645935059 0.465497255325317383 2.08670186996459961 255 166 254 235 21
3.28572440147399902 0.441317826509475708 2.1161348819732666 255 166 254 235 21
3.3231651782989502 0.453974008560180664 2.11754417419433594 255 166 254 235 21
3.29930925369262695 0.439704716205596924 2.15096139907836914 255 166 254 235 21
3.17881107330322266 0.418389171361923218 2.07850527763366699 255 166 254 235 21
3.19669795036315918 0.413691163063049316 2.14576578140258789 255 166 254 235 21
3.24223470687866211 0.430305033922195435 2.13364195823669434 255 166 254 235 21
3.21471047401428223 0.420386224985122681 2.09433197975158691 255 166 254 235 21
3.16657781600952148 0.43843996524810791 1.82058656215667725 255 166 254 235 21
3.19607162475585938 0.428439438343048096 1.95577096939086914 255 166 254 235 21
3.17832398414611816 0.433759421110153198 1.91196870803833008 255 166 254 235 21
3.24432206153869629 0.443316251039505005 1.94896626472473145 255 166 254 235 21
3.2213292121887207 0.428399413824081421 1.97849857807159424 255 166 254 235 21
3.24978780746459961 0.441269129514694214 1.98121249675750732 255 166 254 235 21
3.28289628028869629 0.446821093559265137 1.95638799667358398 255 166 254 235 21
2.86718249320983887 0.26467597484588623 2.22356629371643066 255 166 254 235 21
3.02454805374145508 0.334036558866500854 2.2153313159942627 255 166 254 235 21
3.15006279945373535 0.389740437269210815 2.18377780914306641 255 166 254 235 21
3.16348958015441895 0.38014906644821167 2.21499967575073242 255 166 254 235 21
2.98533105850219727 0.311914026737213135 2.22386074066162109 255 166 254 235 21
3.20759463310241699 0.396347999572753906 2.21560025215148926 255 166 254 235 21
3.15150904655456543 0.339511632919311523 2.25184202194213867 255 166 254 235 21
3.30503606796264648 0.429930418729782104 2.20840787887573242 255 166 254 235 21
3.33729934692382812 0.445585817098617554 2.20636463165283203 255 166 254 235 21
3.08000588417053223 0.341563314199447632 2.22603583335876465 255 166 254 235 21
3.10710334777832031 0.385145187377929688 2.18780159950256348 255 166 254 235 21
3.10990524291992188 0.375629425048828125 2.20650768280029297 255 166 254 235 21
3.04393959045410156 0.347457557916641235 2.20048713684082031 255 166 254 235 21
3.44040632247924805 0.469797849655151367 2.21366047859191895 255 166 254 235 21
3.04369831085205078 0.287914156913757324 2.27182149887084961 255 166 254 235 21
3.17966628074645996 0.407200783491134644 2.17727184295654297 255 166 254 235 21
3.21991491317749023 0.41291499137878418 2.18708634376525879 255 166 254 235 21
3.24945759773254395 0.416029155254364014 2.20438838005065918 255 166 254 235 21
3.1072237491607666 0.318833142518997192 2.2598109245300293 255 166 254 235 21
3.37039303779602051 0.445671319961547852 2.21550846099853516 255 166 254 235 21
3.36482620239257812 0.464879661798477173 2.18398618698120117 255 166 254 235 21
3.39772748947143555 0.465616375207901001 2.20755982398986816 255 166 254 235 21
2.90456628799438477 0.245749861001968384 2.26243782043457031 255 166 254 235 21
2.98218607902526855 0.271615356206893921 2.26496291160583496 255 166 254 235 21
2.86137175559997559 0.221669495105743408 2.26872754096984863 255 166 254 235 21
2.80328106880187988 0.203497633337974548 2.27048516273498535 255 166 254 235 21
3.20987534523010254 0.354291647672653198 2.25898957252502441 255 166 254 235 21
3.26498866081237793 0.37783387303352356 2.25177597999572754 255 166 254 235 21
3.08689761161804199 0.299727469682693481 2.27949142456054688 255 166 254 235 21
3.04152631759643555 0.304818004369735718 2.24950361251831055 255 166 254 235 21
2.75931382179260254 0.223951965570449829 2.23322486877441406 255 166 254 235 21
2.82219719886779785 0.241732269525527954 2.2328636646270752 255 166 254 235 21
3.40355944633483887 0.41862720251083374 2.2552330493927002 255 166 254 235 21
3.34898686408996582 0.403434097766876221 2.2504112720489502 255 166 254 235 21
2.93048286437988281 0.289031416177749634 2.22667098045349121 255 166 254 235 21
3.30621886253356934 0.514808058738708496 1.12983739376068115 255 166 254 235 21
3.33077359199523926 0.524190664291381836 1.17693686485290527 255 166 254 235 21
3.34902191162109375 0.528458595275878906 1.20264244079589844 255 166 254 235 21
3.34297037124633789 0.526464879512786865 1.26895678043365479 255 166 254 235 21
3.26303291320800781 0.47768324613571167 1.25635325908660889 255 166 254 235 21
3.32175660133361816 0.507325172424316406 1.2458655834197998 255 166 254 235 21
3.31586980819702148 0.505765557289123535 1.28573048114776611 255 166 254 235 21
3.19993829727172852 0.486832708120346069 1.17731964588165283 255 166 254 235 21
3.25203180313110352 0.487319290637969971 1.20338058471679688 255 166 254 235 21
3.29787540435791016 0.502612769603729248 1.1912078857421875 255 166 254 235 21
3.24404263496398926 0.494144797325134277 1.14984440803527832 255 166 254 235 21
3.1244664192199707 0.481929570436477661 1.38368570804595947 255 166 254 235 21
3.12737250328063965 0.471877962350845337 1.45135724544525146 255 166 254 235 21
3.16698908805847168 0.478459388017654419 1.35381603240966797 255 166 254 235 21
3.21631646156311035 0.508124470710754395 1.07731592655181885 255 166 254 235 21
3.23138880729675293 0.500024676322937012 1.11867284774780273 255 166 254 235 21
3.2560889720916748 0.513153553009033203 1.07173275947570801 255 166 254 235 21
3.2608635425567627 0.511067807674407959 1.11558055877685547 255 166 254 235 21
3.22993826866149902 0.471005260944366455 1.35509788990020752 255 166 254 235 21
3.23007631301879883 0.470085620880126953 1.30706095695495605 255 166 254 235 21
3.35737514495849609 0.540774822235107422 1.11921584606170654 255 166 254 235 21
3.38625049591064453 0.541759133338928223 1.09987688064575195 255 166 254 235 21
3.45907878875732422 0.544350028038024902 1.49907505512237549 255 166 254 235 21
3.50220203399658203 0.538387775421142578 1.50103390216827393 255 166 254 235 21
3.11504030227661133 0.503027617931365967 1.18496179580688477 255 166 254 235 21
3.15365862846374512 0.510469615459442139 1.07854926586151123 255 166 254 235 21
3.1736607551574707 0.466283321380615234 1.46696829795837402 255 166 254 235 21
3.14342808723449707 0.470708191394805908 1.47154664993286133 255 166 254 235 21
3.35347986221313477 0.519906282424926758 1.42006576061248779 255 166 254 235 21
3.40175843238830566 0.526610970497131348 1.45049118995666504 255 166 254 235 21
3.36961770057678223 0.510318577289581299 1.52702105045318604 255 166 254 235 21
3.40198969841003418 0.528652429580688477 1.48131477832794189 255 166 254 235 21
3.36091017723083496 0.523643732070922852 1.46488583087921143 255 166 254 235 21
3.42502331733703613 0.53515315055847168 1.4714653491973877 255 166 254 235 21
3.39353322982788086 0.525883078575134277 1.19578588008880615 255 166 254 235 21
3.36004900932312012 0.531081736087799072 1.22742998600006104 255 166 254 235 21
3.38815712928771973 0.536665618419647217 1.28028690814971924 255 166 254 235 21
3.40305352210998535 0.531170368194580078 1.2355724573135376 255 166 254 235 21
3.14522075653076172 0.493494987487792969 1.251708984375 255 166 254 235 21
3.12704634666442871 0.502102911472320557 1.21304965019226074 255 166 254 235 21
3.1180417537689209 0.496834009885787964 1.25396156311035156 255 166 254 235 21
3.11971402168273926 0.49533727765083313 1.29570603370666504 255 166 254 235 21
3.43012356758117676 0.540808439254760742 1.24646914005279541 255 166 254 235 21
3.34102582931518555 0.537222027778625488 1.11573314666748047 255 166 254 235 21
3.27932500839233398 0.519885063171386719 1.07923352718353271 255 166 254 235 21
3.35477685928344727 0.544506728649139404 1.0819249153137207 255 166 254 235 21
3.30790424346923828 0.533868074417114258 1.06931543350219727 255 166 254 235 21
3.31093430519104004 0.499158263206481934 1.38659167289733887 255 166 254 235 21
3.32051229476928711 0.505368351936340332 1.41738367080688477 255 166 254 235 21
3.28297233581542969 0.490861266851425171 1.35359394550323486 255 166 254 235 21
3.35886001586914062 0.523554742336273193 1.37598228454589844 255 166 254 235 21
3.4110257625579834 0.539555490016937256 1.1239161491394043 255 166 254 235 21
3.41753697395324707 0.535589098930358887 1.17871403694152832 255 166 254 235 21
3.28074932098388672 0.477029383182525635 1.48417365550994873 255 166 254 235 21
3.33504223823547363 0.509312450885772705 1.44492077827453613 255 166 254 235 21
3.28992152214050293 0.481973618268966675 1.43498146533966064 255 166 254 235 21
3.31743955612182617 0.494654595851898193 1.49675750732421875 255 166 254 235 21
3.15211033821105957 0.480937987565994263 1.3900916576385498 255 166 254 235 21
3.40451407432556152 0.531525552272796631 1.40798354148864746 255 166 254 235 21
3.43276262283325195 0.541421353816986084 1.34706985950469971 255 166 254 235 21
3.43730068206787109 0.542032718658447266 1.4280472993850708 255 166 254 235 21
3.2715146541595459 0.482332557439804077 1.29394161701202393 255 166 254 235 21
3.30632328987121582 0.499418139457702637 1.32528257369995117 255 166 254 235 21
3.20193576812744141 0.492291778326034546 1.15247559547424316 255 166 254 235 21
3.11838769912719727 0.513005733489990234 1.10739386081695557 255 166 254 235 21
3.15969014167785645 0.505460083484649658 1.11892521381378174 255 166 254 235 21
3.15767717361450195 0.495183765888214111 1.18548786640167236 255 166 254 235 21
3.12459254264831543 0.508877336978912354 1.15159809589385986 255 166 254 235 21
3.48812747001647949 0.548070371150970459 1.31959080696105957 255 166 254 235 21
3.25652694702148438 0.476357698440551758 1.33947181701660156 255 166 254 235 21
3.23723626136779785 0.477805286645889282 1.23051083087921143 255 166 254 235 21
3.20183873176574707 0.481216460466384888 1.24927389621734619 255 166 254 235 21
3.12653708457946777 0.484712958335876465 1.34338462352752686 255 166 254 235 21
3.16782617568969727 0.4773235023021698 1.2798466682434082 255 166 254 235 21
3.17948484420776367 0.474887460470199585 1.31677925586700439 255 166 254 235 21
3.34975838661193848 0.52971118688583374 1.33700859546661377 255 166 254 235 21
3.39367437362670898 0.530494272708892822 1.32994508743286133 255 166 254 235 21
3.3986821174621582 0.525718212127685547 1.35784244537353516 255 166 254 235 21
3.35818648338317871 0.533178567886352539 1.27931725978851318 255 166 254 235 21
3.24627256393432617 0.470479667186737061 1.46307861804962158 255 166 254 235 21
3.25190114974975586 0.473163187503814697 1.42041563987731934 255 166 254 235 21
3.21999669075012207 0.459877282381057739 1.47257339954376221 255 166 254 235 21
3.20400786399841309 0.469090759754180908 1.35710048675537109 255 166 254 235 21
3.26421236991882324 0.471328556537628174 1.38502013683319092 255 166 254 235 21
3.19764184951782227 0.468756288290023804 1.38501083850860596 255 166 254 235 21
3.22131776809692383 0.458353817462921143 1.42671191692352295 255 166 254 235 21
3.45144534111022949 0.539824008941650391 1.39104139804840088 255 166 254 235 21
3.49689078330993652 0.540614604949951172 1.41686391830444336 255 166 254 235 21
3.33478450775146484 0.470070302486419678 2.00644850730895996 255 166 254 235 21
3.38435745239257812 0.488822132349014282 1.95298349857330322 255 166 254 235 21
3.42912650108337402 0.505477070808410645 1.95056045055389404 255 166 254 235 21
3.41047239303588867 0.501997053623199463 1.91259026527404785 255 166 254 235 21
3.36126303672790527 0.478904157876968384 1.97593927383422852 255 166 254 235 21
3.41291236877441406 0.495606690645217896 2.0044398307800293 255 166 254 235 21
3.3698732852935791 0.471538931131362915 2.0266878604888916 255 166 254 235 21
3.32388615608215332 0.484341233968734741 1.73177623748779297 255 166 254 235 21
3.29697394371032715 0.469041287899017334 1.72295165061950684 255 166 254 235 21
3.49619960784912109 0.531845688819885254 1.6966627836227417 255 166 254 235 21
3.4586331844329834 0.533241033554077148 1.68744993209838867 255 166 254 235 21
3.47292590141296387 0.53537982702255249 1.74713742733001709 255 166 254 235 21
3.25413918495178223 0.460466712713241577 1.55464518070220947 255 166 254 235 21
3.34687900543212891 0.508330047130584717 1.51228845119476318 255 166 254 235 21
3.30059242248535156 0.487296313047409058 1.56755650043487549 255 166 254 235 21
3.34208941459655762 0.505511283874511719 1.55103254318237305 255 166 254 235 21
3.30469131469726562 0.48246234655380249 1.51273787021636963 255 166 254 235 21
3.33660745620727539 0.48595130443572998 1.76999032497406006 255 166 254 235 21
3.15299510955810547 0.455931663513183594 1.56166350841522217 255 166 254 235 21
3.16257381439208984 0.461837649345397949 1.50432741641998291 255 166 254 235 21
3.19455718994140625 0.453948736190795898 1.54765450954437256 255 166 254 235 21
3.12865376472473145 0.46768227219581604 1.51583480834960938 255 166 254 235 21
3.43845534324645996 0.49082145094871521 2.14382123947143555 255 166 254 235 21
3.49190497398376465 0.516782879829406738 2.14160442352294922 255 166 254 235 21
3.47414684295654297 0.514861583709716797 2.08844327926635742 255 166 254 235 21
3.25010848045349121 0.4484977126121521 1.88645923137664795 255 166 254 235 21
3.2139592170715332 0.434285879135131836 1.85083794593811035 255 166 254 235 21
3.22988533973693848 0.4461955726146698 1.69161629676818848 255 166 254 235 21
3.25853300094604492 0.461048901081085205 1.69392263889312744 255 166 254 235 21
3.23011445999145508 0.45155489444732666 1.72252762317657471 255 166 254 235 21
3.43754839897155762 0.509006202220916748 1.90917611122131348 255 166 254 235 21
3.47028613090515137 0.525535523891448975 1.89197838306427002 255 166 254 235 21
3.13828325271606445 0.45708388090133667 1.59204328060150146 255 166 254 235 21
3.13764119148254395 0.44127887487411499 1.66956675052642822 255 166 254 235 21
3.50086760520935059 0.520700693130493164 2.17892265319824219 255 166 254 235 21
3.43232059478759766 0.478911429643630981 2.17280673980712891 255 166 254 235 21
3.46458339691162109 0.504892170429229736 2.18215608596801758 255 166 254 235 21
3.34647655487060547 0.503282248973846436 1.63748490810394287 255 166 254 235 21
3.42825031280517578 0.526643753051757812 1.68727612495422363 255 166 254 235 21
3.37933230400085449 0.513668656349182129 1.67207586765289307 255 166 254 235 21
3.43938255310058594 0.535132825374603271 1.7206951379776001 255 166 254 235 21
3.33146381378173828 0.498580992221832275 1.69078958034515381 255 166 254 235 21
3.35823440551757812 0.501976847648620605 1.71915018558502197 255 166 254 235 21
3.49002766609191895 0.52703481912612915 1.97008562088012695 255 166 254 235 21
3.47797584533691406 0.527316689491271973 1.94160914421081543 255 166 254 235 21
3.08919858932495117 0.387292623519897461 1.70295238494873047 255 166 254 235 21
3.20979142189025879 0.438622772693634033 1.81417429447174072 255 166 254 235 21
3.11951851844787598 0.420976787805557251 1.7760777473449707 255 166 254 235 21
3.12162971496582031 0.409239590167999268 1.79380059242248535 255 166 254 235 21
3.17464351654052734 0.440250426530838013 1.76060700416564941 255 166 254 235 21
3.15656399726867676 0.437239348888397217 1.791168212890625 255 166 254 235 21
3.48141646385192871 0.543472945690155029 1.53244376182556152 255 166 254 235 21
3.43673086166381836 0.537673652172088623 1.5292353630065918 255 166 254 235 21
3.39491677284240723 0.478170216083526611 2.1839599609375 255 166 254 235 21
3.35221028327941895 0.514005899429321289 1.5804135799407959 255 166 254 235 21
3.38986730575561523 0.517426609992980957 1.628898024559021 255 166 254 235 21
3.42668819427490234 0.53401947021484375 1.61175048351287842 255 166 254 235 21
3.41739463806152344 0.53101658821105957 1.63872945308685303 255 166 254 235 21
3.39302468299865723 0.505313098430633545 1.84028041362762451 255 166 254 235 21
3.38137578964233398 0.495010405778884888 1.8744051456451416 255 166 254 235 21
3.37324810028076172 0.489928573369979858 1.91832566261291504 255 166 254 235 21
3.26531314849853516 0.452488481998443604 1.75212979316711426 255 166 254 235 21
3.2201378345489502 0.440771192312240601 1.79412853717803955 255 166 254 235 21
3.23413777351379395 0.4494304358959198 1.77214741706848145 255 166 254 235 21
3.25725913047790527 0.45209050178527832 1.82880222797393799 255 166 254 235 21
3.22887325286865234 0.452535748481750488 1.54261636734008789 255 166 254 235 21
3.21071648597717285 0.451232254505157471 1.59136486053466797 255 166 254 235 21
3.22931265830993652 0.456385254859924316 1.50132060050964355 255 166 254 235 21
3.2716679573059082 0.471659600734710693 1.53462660312652588 255 166 254 235 21
3.27653861045837402 0.466393977403640747 1.59622359275817871 255 166 254 235 21
3.17115068435668945 0.435434579849243164 1.68871808052062988 255 166 254 235 21
3.11198306083679199 0.416406780481338501 1.67909502983093262 255 166 254 235 21
3.14870643615722656 0.446268171072006226 1.73518991470336914 255 166 254 235 21
3.13127255439758301 0.444492310285568237 1.74136579036712646 255 166 254 235 21
3.18332576751708984 0.439948588609695435 1.72488319873809814 255 166 254 235 21
3.4534599781036377 0.513638496398925781 1.99902987480163574 255 166 254 235 21
3.46692538261413574 0.51227414608001709 2.05583286285400391 255 166 254 235 21
3.49165582656860352 0.52609020471572876 2.05767679214477539 255 166 254 235 21
3.26852011680603027 0.454375922679901123 1.7906874418258667 255 166 254 235 21
3.29206490516662598 0.452870696783065796 1.86264777183532715 255 166 254 235 21
3.31145381927490234 0.471187233924865723 1.77832651138305664 255 166 254 235 21
3.40529298782348633 0.484960079193115234 2.12906908988952637 255 166 254 235 21
3.39836859703063965 0.483237862586975098 2.10074949264526367 255 166 254 235 21
3.43072938919067383 0.489814728498458862 2.10930037498474121 255 166 254 235 21
3.09611153602600098 0.398503810167312622 1.76357746124267578 255 166 254 235 21
3.11025738716125488 0.418851941823959351 1.72605347633361816 255 166 254 235 21
3.37187480926513672 0.50084763765335083 1.77055823802947998 255 166 254 235 21
3.35006475448608398 0.488369256258010864 1.81727039813995361 255 166 254 235 21
3.38970088958740234 0.511422634124755859 1.76415026187896729 255 166 254 235 21
3.39655542373657227 0.515036046504974365 1.7421715259552002 255 166 254 235 21
3.42832112312316895 0.513729691505432129 1.85833978652954102 255 166 254 235 21
3.48318910598754883 0.540116310119628906 1.58117067813873291 255 166 254 235 21
3.46868395805358887 0.534961819648742676 1.63196337223052979 255 166 254 235 21
3.51350951194763184 0.533863842487335205 1.63795101642608643 255 166 254 235 21
3.5095515251159668 0.53578794002532959 1.66445887088775635 255 166 254 235 21
3.40823101997375488 0.528999984264373779 1.54656755924224854 255 166 254 235 21
3.39484000205993652 0.522360384464263916 1.56952857971191406 255 166 254 235 21
3.43484020233154297 0.542000114917755127 1.57557570934295654 255 166 254 235 21
3.40683341026306152 0.492183506488800049 2.04106616973876953 255 166 254 235 21
3.31838679313659668 0.458257079124450684 1.97079098224639893 255 166 254 235 21
3.33760547637939453 0.470153748989105225 1.96313345432281494 255 166 254 235 21
3.18436026573181152 0.445003002882003784 1.62288665771484375 255 166 254 235 21
3.21551752090454102 0.460934638977050781 1.6262892484664917 255 166 254 235 21
3.21056032180786133 0.445857614278793335 1.6649925708770752 255 166 254 235 21
3.24732828140258789 0.462830930948257446 1.65639054775238037 255 166 254 235 21
3.28654050827026367 0.474318593740463257 1.6625438928604126 255 166 254 235 21
3.30225062370300293 0.472781658172607422 1.61831021308898926 255 166 254 235 21
3.27573370933532715 0.463537454605102539 1.6334460973739624 255 166 254 235 21
3.30982065200805664 0.463275313377380371 1.82892489433288574 255 166 254 235 21
3.33884549140930176 0.479796737432479858 1.85403549671173096 255 166 254 235 21
3.30011940002441406 0.452983289957046509 1.89427757263183594 255 166 254 235 21
3.49181818962097168 0.530804157257080078 1.78679335117340088 255 166 254 235 21
3.4577329158782959 0.530845046043395996 1.78174293041229248 255 166 254 235 21
3.42506814002990723 0.519060254096984863 1.80744338035583496 255 166 254 235 21
3.48796248435974121 0.529336929321289062 1.85628402233123779 255 166 254 235 21
3.46769809722900391 0.529239773750305176 1.85537445545196533 255 166 254 235 21
3.44394612312316895 0.540362119674682617 1.16718292236328125 255 166 254 235 21
3.38558506965637207 0.544120907783508301 1.06818282604217529 255 166 254 235 21
3.42088198661804199 0.552724003791809082 1.07757127285003662 255 166 254 235 21
3.48069667816162109 0.551914989948272705 1.22738397121429443 255 166 254 235 21
3.49712324142456055 0.572407901287078857 1.19113016128540039 255 166 254 235 21
3.4276740550994873 0.546907901763916016 1.2160799503326416 255 166 254 235 21
3.46131396293640137 0.548074424266815186 1.20378637313842773 255 166 254 235 21
3.47241520881652832 0.548827230930328369 1.30523335933685303 255 166 254 235 21
3.48065304756164551 0.552744746208190918 1.267464280128479 255 166 254 235 21
3.45706295967102051 0.564756035804748535 1.08267593383789062 255 166 254 235 21
3.49091148376464844 0.587778329849243164 1.10812568664550781 255 166 254 235 21
3.49375081062316895 0.586137175559997559 1.07005119323730469 255 166 254 235 21
3.42290592193603516 0.546014010906219482 1.2945249080657959 255 166 254 235 21
3.48787713050842285 0.549354076385498047 1.36268651485443115 255 166 254 235 21
3.50151920318603516 0.538703262805938721 1.46465277671813965 255 166 254 235 21
3.52499842643737793 0.529553055763244629 1.81639325618743896 255 166 254 235 21
3.55715179443359375 0.539783179759979248 1.82587194442749023 255 166 254 235 21
3.58032631874084473 0.540661871433258057 1.92635917663574219 255 166 254 235 21
3.55982398986816406 0.533981740474700928 1.8567889928817749 255 166 254 235 21
3.52294802665710449 0.52894967794418335 1.85777544975280762 255 166 254 235 21
3.51272892951965332 0.529921531677246094 1.74903750419616699 255 166 254 235 21
3.52269291877746582 0.524773955345153809 2.02816510200500488 255 166 254 235 21
3.5935971736907959 0.545667588710784912 2.00146389007568359 255 166 254 235 21
3.55620455741882324 0.537971079349517822 2.03399109840393066 255 166 254 235 21
3.50142145156860352 0.524257242679595947 2.1090245246887207 255 166 254 235 21
3.54437136650085449 0.529894053936004639 2.18996500968933105 255 166 254 235 21
3.5725855827331543 0.542752981185913086 2.18814706802368164 255 166 254 235 21
3.51119542121887207 0.526645302772521973 1.97380387783050537 255 166 254 235 21
3.5315403938293457 0.526237785816192627 1.91197681427001953 255 166 254 235 21
3.53028726577758789 0.535304367542266846 1.76899337768554688 255 166 254 235 21
3.53409123420715332 0.539343297481536865 1.71683847904205322 255 166 254 235 21
3.55821871757507324 0.534742236137390137 1.96931493282318115 255 166 254 235 21
3.59323859214782715 0.550371348857879639 1.96603512763977051 255 166 254 235 21
3.53723549842834473 0.529358148574829102 1.99176239967346191 255 166 254 235 21
3.52905726432800293 0.526287734508514404 2.05626964569091797 255 166 254 235 21
3.53403830528259277 0.525524020195007324 2.11749577522277832 255 166 254 235 21
3.56703853607177734 0.542819499969482422 2.11499166488647461 255 166 254 235 21
3.53553533554077148 0.528616011142730713 2.14862298965454102 255 166 254 235 21
3.51632213592529297 0.621459662914276123 1.10773420333862305 255 166 254 235 21
3.51614928245544434 0.559396862983703613 1.37857985496520996 255 166 254 235 21
3.49279975891113281 0.568589150905609131 1.15712034702301025 255 166 254 235 21
3.52534842491149902 0.615671932697296143 1.1851428747177124 255 166 254 235 21
3.51626968383789062 0.619869232177734375 1.14723396301269531 255 166 254 235 21
3.54452967643737793 0.643752157688140869 1.10160458087921143 255 166 254 235 21
3.58050632476806641 0.660029113292694092 1.08025085926055908 255 166 254 235 21
3.56925463676452637 0.666130125522613525 1.11480140686035156 255 166 254 235 21
3.53889560699462891 0.61291968822479248 1.27872490882873535 255 166 254 235 21
3.53284382820129395 0.609590590000152588 1.31744098663330078 255 166 254 235 21
3.53381943702697754 0.598367989063262939 1.34409415721893311 255 166 254 235 21
3.49898362159729004 0.566703557968139648 1.23381972312927246 255 166 254 235 21
3.51414275169372559 0.568968236446380615 1.28583109378814697 255 166 254 235 21
3.54412627220153809 0.628074824810028076 1.25389242172241211 255 166 254 235 21
3.50866866111755371 0.559036970138549805 1.33172571659088135 255 166 254 235 21
3.54732251167297363 0.618148326873779297 1.35190045833587646 255 166 254 235 21
3.54732275009155273 0.607057750225067139 1.4029616117477417 255 166 254 235 21
3.53457236289978027 0.59795767068862915 1.38093888759613037 255 166 254 235 21
3.52228331565856934 0.630862116813659668 1.08101320266723633 255 166 254 235 21
3.59409570693969727 0.665835261344909668 1.05783665180206299 255 166 254 235 21
3.60376381874084473 0.681726694107055664 1.10479700565338135 255 166 254 235 21
3.61481881141662598 0.687822997570037842 1.06963706016540527 255 166 254 235 21
3.61142349243164062 0.678876042366027832 1.15659725666046143 255 166 254 235 21
3.63416051864624023 0.703191816806793213 1.17244243621826172 255 166 254 235 21
3.55747866630554199 0.557101190090179443 1.7658160924911499 255 166 254 235 21
3.5806269645690918 0.548499405384063721 1.85334587097167969 255 166 254 235 21
3.60403656959533691 0.57627791166305542 1.89574754238128662 255 166 254 235 21
3.56358933448791504 0.584796130657196045 1.65680015087127686 255 166 254 235 21
3.54226493835449219 0.559270679950714111 1.67714202404022217 255 166 254 235 21
3.57301878929138184 0.553144156932830811 1.81509137153625488 255 166 254 235 21
3.63531708717346191 0.57242882251739502 2.12795925140380859 255 166 254 235 21
3.62258577346801758 0.577030420303344727 1.97031044960021973 255 166 254 235 21
3.65372586250305176 0.573493719100952148 1.99186062812805176 255 166 254 235 21
3.60074663162231445 0.578118503093719482 1.84714889526367188 255 166 254 235 21
3.50827455520629883 0.542415618896484375 1.59986782073974609 255 166 254 235 21
3.50680184364318848 0.541668474674224854 1.55742442607879639 255 166 254 235 21
3.61911916732788086 0.566757142543792725 2.06192326545715332 255 166 254 235 21
3.66356635093688965 0.568771123886108398 2.08892703056335449 255 166 254 235 21
3.63872265815734863 0.570532679557800293 2.09869241714477539 255 166 254 235 21
3.56909608840942383 0.578985810279846191 1.74126553535461426 255 166 254 235 21
3.59278035163879395 0.547305583953857422 2.06875133514404297 255 166 254 235 21
3.62702012062072754 0.573644578456878662 2.00714802742004395 255 166 254 235 21
3.6067345142364502 0.553385138511657715 2.11190581321716309 255 166 254 235 21
3.10085415840148926 0.491079807281494141 1.15487194061279297 255 166 254 235 21
3.08510947227478027 0.438142329454421997 1.19082534313201904 255 166 254 235 21
3.08500003814697266 0.421638131141662598 1.27999997138977051 255 166 254 235 21
3.08885860443115234 0.414583027362823486 1.34097599983215332 255 166 254 235 21
3.10462045669555664 0.484057128429412842 1.28205668926239014 255 166 254 235 21
3.09818887710571289 0.497244209051132202 1.11396300792694092 255 166 254 235 21
3.11540722846984863 0.479693859815597534 1.3497852087020874 255 166 254 235 21
3.11483502388000488 0.470007151365280151 1.41979622840881348 255 166 254 235 21
3.10251355171203613 0.490783184766769409 1.19487547874450684 255 166 254 235 21
3.10500001907348633 0.448783606290817261 1.44249987602233887 255 166 254 235 21
3.10423779487609863 0.445447981357574463 1.4970773458480835 255 166 254 235 21
3.07405591011047363 0.433679640293121338 1.08425271511077881 255 166 254 235 21
3.10476970672607422 0.461929798126220703 1.35057675838470459 255 166 254 235 21
3.08774471282958984 0.398559927940368652 1.40747129917144775 255 166 254 235 21
3.07478618621826172 0.412061780691146851 1.18606913089752197 255 166 254 235 21
3.09733271598815918 0.465820521116256714 1.27748596668243408 255 166 254 235 21
3.08470892906188965 0.393199354410171509 1.4486241340637207 255 166 254 235 21
3.11928391456604004 0.449283093214035034 1.56018340587615967 255 166 254 235 21
3.1148993968963623 0.460269510746002197 1.50991141796112061 255 166 254 235 21
3.08238625526428223 0.39024016261100769 1.56735014915466309 255 166 254 235 21
3.12475299835205078 0.449075937271118164 1.6179128885269165 255 166 254 235 21
3.1226956844329834 0.434086233377456665 1.66185665130615234 255 166 254 235 21
3.09591555595397949 0.39516294002532959 1.63661658763885498 255 166 254 235 21
3.09054470062255859 0.397861450910568237 1.60182273387908936 255 166 254 235 21
3.08346772193908691 0.399085432291030884 1.50526082515716553 255 166 254 235 21
3.11322307586669922 0.432209879159927368 1.61984789371490479 255 166 254 235 21
3.09838509559631348 0.410028189420700073 1.56843066215515137 255 166 254 235 21
2.8753662109375 0.351456224918365479 1.31397378444671631 255 166 254 235 21
2.96271562576293945 0.396176069974899292 1.29782319068908691 255 166 254 235 21
2.90780186653137207 0.384130805730819702 1.28568422794342041 255 166 254 235 21
2.96213626861572266 0.391610383987426758 1.3376694917678833 255 166 254 235 21
2.81471562385559082 0.339750051498413086 1.20160150527954102 255 166 254 235 21
2.84780597686767578 0.351350992918014526 1.2326204776763916 255 166 254 235 21
2.85690426826477051 0.349444925785064697 1.2658151388168335 255 166 254 235 21
2.83757710456848145 0.34401017427444458 1.20496094226837158 255 166 254 235 21
3.0003969669342041 0.398263335227966309 1.09796011447906494 255 166 254 235 21
2.92250537872314453 0.388556063175201416 1.22198045253753662 255 166 254 235 21
2.9530029296875 0.395713239908218384 1.2548595666885376 255 166 254 235 21
2.89290308952331543 0.375488042831420898 1.23914802074432373 255 166 254 235 21
