ply
format ascii 1.0
element vertex 591
property float x
property float y
property float z
property uchar red
property uchar green
property uchar blue
property uchar alpha
property uint label
end_header
1.99913203716278076 4.72130441665649414 0.0433232337236404419 189 198 255 253 3
2.07209658622741699 4.80136299133300781 0.0412171743810176849 189 198 255 253 3
2.02912735939025879 4.84095287322998047 0.0406545326113700867 189 198 255 253 3
1.48972797393798828 4.57614707946777344 0.0374528653919696808 189 198 255 253 3
1.554878830909729 4.58331394195556641 0.0387429483234882355 189 198 255 253 3
1.57885265350341797 4.65853977203369141 0.0382675006985664368 189 198 255 253 3
1.59336733818054199 4.59735441207885742 0.0375901386141777039 189 198 255 253 3
2.2643125057220459 4.62082719802856445 0.0493213795125484467 189 198 255 253 3
1.52138292789459229 5.21956157684326172 0.037095535546541214 189 198 255 253 3
1.75336778163909912 5.62227869033813477 0.0425793565809726715 189 198 255 253 3
1.80321455001831055 5.58090400695800781 0.0406524874269962311 189 198 255 253 3
1.83060646057128906 5.66586065292358398 0.040273960679769516 189 198 255 253 3
2.01329374313354492 5.52570295333862305 0.0361727699637413025 189 198 255 253 3
2.02550816535949707 5.56887626647949219 0.0392064414918422699 189 198 255 253 3
1.96839809417724609 5.61271286010742188 0.0440864786505699158 189 198 255 253 3
2.00184249877929688 5.63903045654296875 0.0408897995948791504 189 198 255 253 3
1.96096360683441162 5.65822315216064453 0.0434714555740356445 189 198 255 253 3
1.85491609573364258 5.5854945182800293 0.0410992279648780823 189 198 255 253 3
1.92340946197509766 5.54474782943725586 0.0406142175197601318 189 198 255 253 3
1.84976327419281006 5.52355098724365234 0.0430251471698284149 189 198 255 253 3
1.91216182708740234 5.56784534454345703 0.0393872484564781189 189 198 255 253 3
1.89626765251159668 5.68435287475585938 0.0418779291212558746 189 198 255 253 3
1.80146396160125732 5.76038122177124023 0.0418128632009029388 189 198 255 253 3
1.77208757400512695 5.52372312545776367 0.0434221327304840088 189 198 255 253 3
1.89996695518493652 5.73580741882324219 0.0410150885581970215 189 198 255 253 3
1.9631807804107666 5.74557352066040039 0.0409087091684341431 189 198 255 253 3
1.93267107009887695 5.70191240310668945 0.046732485294342041 189 198 255 253 3
1.97692084312438965 5.69713354110717773 0.0446067415177822113 189 198 255 253 3
2.02364516258239746 5.61092424392700195 0.044466361403465271 189 198 255 253 3
1.64436554908752441 5.46562480926513672 0.0425817295908927917 189 198 255 253 3
1.7400360107421875 5.54928255081176758 0.0432432591915130615 189 198 255 253 3
1.65149807929992676 5.57261085510253906 0.0419616065919399261 189 198 255 253 3
1.69602680206298828 5.55655097961425781 0.0410480126738548279 189 198 255 253 3
1.72629797458648682 5.68259334564208984 0.0403676368296146393 189 198 255 253 3
1.80262970924377441 5.70190143585205078 0.04220590740442276 189 198 255 253 3
1.73894000053405762 5.76574087142944336 0.0448403693735599518 189 198 255 253 3
1.53001642227172852 5.57605171203613281 0.0407956838607788086 189 198 255 253 3
1.54542410373687744 5.63581132888793945 0.0415635034441947937 189 198 255 253 3
1.60439622402191162 5.62525367736816406 0.0403735078871250153 189 198 255 253 3
1.58251368999481201 5.57296180725097656 0.0407582223415374756 189 198 255 253 3
1.67231810092926025 5.70780086517333984 0.0412696152925491333 189 198 255 253 3
1.62783515453338623 5.70838737487792969 0.0444839932024478912 189 198 255 253 3
1.97838699817657471 5.55703544616699219 0.0409270711243152618 189 198 255 253 3
1.84086811542510986 5.77306270599365234 0.0412931367754936218 189 198 255 253 3
1.65798783302307129 5.66169071197509766 0.040375828742980957 189 198 255 253 3
1.88999998569488525 5.64187479019165039 0.0416522584855556488 189 198 255 253 3
2.97310137748718262 0.520015120506286621 0.0544110983610153198 189 198 255 253 3
3.00583386421203613 0.539780020713806152 0.0536978878080844879 189 198 255 253 3
2.94161701202392578 0.497777551412582397 0.061274159699678421 189 198 255 253 3
2.92156052589416504 0.501383125782012939 0.0863832682371139526 189 198 255 253 3
2.88563656806945801 0.561441659927368164 0.141117900609970093 189 198 255 253 3
3.04202651977539062 1.50089621543884277 0.0554724223911762238 189 198 255 253 3
2.99054932594299316 1.42971193790435791 0.0642579495906829834 189 198 255 253 3
3.05717349052429199 0.539438605308532715 0.0553025491535663605 189 198 255 253 3
2.75160956382751465 1.33471763134002686 0.0645522922277450562 189 198 255 253 3
2.80333185195922852 1.35312795639038086 0.0563312172889709473 189 198 255 253 3
3.33912277221679688 0.635062634944915771 0.0632803738117218018 189 198 255 253 3
3.35192131996154785 0.703139901161193848 0.0698915421962738037 189 198 255 253 3
2.96231627464294434 0.559497535228729248 0.0518796965479850769 189 198 255 253 3
2.90278863906860352 0.731002509593963623 0.0464091002941131592 189 198 255 253 3
2.88896012306213379 0.637415707111358643 0.0565402284264564514 189 198 255 253 3
2.92391729354858398 0.641580045223236084 0.058131147176027298 189 198 255 253 3
3.04185128211975098 1.49235928058624268 0.114279001951217651 189 198 255 253 3
2.8710629940032959 0.673424243927001953 0.049571644514799118 189 198 255 253 3
2.86915683746337891 0.640267550945281982 0.0690580904483795166 189 198 255 253 3
3.18121695518493652 0.938892543315887451 0.043464168906211853 189 198 255 253 3
3.12745308876037598 0.964853167533874512 0.0449523255228996277 189 198 255 253 3
3.18165826797485352 1.17454850673675537 0.0560493431985378265 189 198 255 253 3
3.17895102500915527 1.10885167121887207 0.050009213387966156 189 198 255 253 3
3.19089293479919434 1.14478373527526855 0.0472170449793338776 189 198 255 253 3
3.13114714622497559 1.19370865821838379 0.0563475005328655243 189 198 255 253 3
3.11600160598754883 1.16119623184204102 0.043544527143239975 189 198 255 253 3
3.15433216094970703 1.15622258186340332 0.0416442304849624634 189 198 255 253 3
2.99442458152770996 1.4590076208114624 0.0566018186509609222 189 198 255 253 3
2.90622973442077637 1.43925344944000244 0.057742588222026825 189 198 255 253 3
2.87833833694458008 1.52964019775390625 0.0567883811891078949 189 198 255 253 3
2.89693808555603027 0.865994751453399658 0.0509999431669712067 189 198 255 253 3
3.34389948844909668 0.604020178318023682 0.0698294490575790405 189 198 255 253 3
3.24319338798522949 1.45277619361877441 0.0492395795881748199 189 198 255 253 3
3.30182695388793945 1.45189714431762695 0.0485274679958820343 189 198 255 253 3
3.04611635208129883 0.834395766258239746 0.0407515242695808411 189 198 255 253 3
3.08775854110717773 1.4841611385345459 0.0867858380079269409 189 198 255 253 3
3.14231443405151367 1.47280788421630859 0.0578811429440975189 189 198 255 253 3
3.03432035446166992 1.47414135932922363 0.0640113651752471924 189 198 255 253 3
3.22911477088928223 1.1982351541519165 0.0497106388211250305 189 198 255 253 3
3.2089698314666748 1.26998186111450195 0.0506828874349594116 189 198 255 253 3
3.23160958290100098 1.24061822891235352 0.046741921454668045 189 198 255 253 3
3.26875686645507812 1.25979042053222656 0.0485377833247184753 189 198 255 253 3
3.24041271209716797 1.28224992752075195 0.048078782856464386 189 198 255 253 3
2.86721897125244141 1.42180180549621582 0.065190732479095459 189 198 255 253 3
2.81818413734436035 1.45086658000946045 0.0568230114877223969 189 198 255 253 3
2.84884309768676758 1.49126696586608887 0.0646738708019256592 189 198 255 253 3
2.89121246337890625 1.47413623332977295 0.0570236705243587494 189 198 255 253 3
3.06009244918823242 1.06881439685821533 0.0485688820481300354 189 198 255 253 3
3.03288412094116211 1.03619945049285889 0.0498700663447380066 189 198 255 253 3
3.4693901538848877 1.49224841594696045 0.0511191003024578094 189 198 255 253 3
3.38403201103210449 1.42211341857910156 0.048828665167093277 189 198 255 253 3
3.32479453086853027 1.48121356964111328 0.051757369190454483 189 198 255 253 3
3.42336344718933105 0.935057938098907471 0.0461888983845710754 189 198 255 253 3
3.41192388534545898 0.991959691047668457 0.0501697808504104614 189 198 255 253 3
2.91908001899719238 0.540009617805480957 0.0680342391133308411 189 198 255 253 3
3.43371725082397461 1.44395256042480469 0.0508546270430088043 189 198 255 253 3
3.03338289260864258 1.45514798164367676 0.103481173515319824 189 198 255 253 3
2.98539996147155762 1.41531181335449219 0.128748774528503418 189 198 255 253 3
2.99385547637939453 1.47126889228820801 0.134438276290893555 189 198 255 253 3
3.00127077102661133 1.46201181411743164 0.128218933939933777 189 198 255 253 3
3.01996064186096191 1.49173963069915771 0.124796196818351746 189 198 255 253 3
2.59366416931152344 1.36223125457763672 0.0662810355424880981 189 198 255 253 3
2.63585853576660156 1.36572158336639404 0.0687742754817008972 189 198 255 253 3
2.62303996086120605 1.37945139408111572 0.067231498658657074 189 198 255 253 3
2.58592462539672852 1.39429581165313721 0.0614048503339290619 189 198 255 253 3
2.89194774627685547 0.582942008972167969 0.0803015157580375671 189 198 255 253 3
2.90397977828979492 0.553050994873046875 0.0953406915068626404 189 198 255 253 3
2.8842315673828125 0.585648298263549805 0.129987746477127075 189 198 255 253 3
2.89635133743286133 0.541295111179351807 0.113510802388191223 189 198 255 253 3
2.56929659843444824 1.3548969030380249 0.0598056279122829437 189 198 255 253 3
2.57237601280212402 1.30308294296264648 0.0597246624529361725 189 198 255 253 3
3.30427217483520508 1.04033565521240234 0.0428564995527267456 189 198 255 253 3
3.35295939445495605 1.09324300289154053 0.04695897176861763 189 198 255 253 3
3.27870869636535645 1.12763321399688721 0.0462490171194076538 189 198 255 253 3
2.99380230903625488 1.16917681694030762 0.0532336682081222534 189 198 255 253 3
3.03759050369262695 1.12671327590942383 0.0498603843152523041 189 198 255 253 3
2.96957969665527344 1.16953516006469727 0.051445644348859787 189 198 255 253 3
3.12052631378173828 0.605570971965789795 0.0502561777830123901 189 198 255 253 3
3.14133095741271973 0.663697361946105957 0.0598041154444217682 189 198 255 253 3
3.13254475593566895 0.714726030826568604 0.0550629608333110809 189 198 255 253 3
3.18368411064147949 0.701923727989196777 0.0802075788378715515 189 198 255 253 3
3.33674216270446777 1.23809981346130371 0.0461479723453521729 189 198 255 253 3
2.96627950668334961 1.27610158920288086 0.0861400440335273743 189 198 255 253 3
3.00781416893005371 1.33686983585357666 0.0683776587247848511 189 198 255 253 3
3.01121878623962402 1.35451424121856689 0.120385147631168365 189 198 255 253 3
3.02281880378723145 1.33690154552459717 0.126065418124198914 189 198 255 253 3
3.01194405555725098 1.32227587699890137 0.121134765446186066 189 198 255 253 3
2.98793268203735352 1.33674609661102295 0.128457069396972656 189 198 255 253 3
2.74759531021118164 1.35693657398223877 0.0598968416452407837 189 198 255 253 3
2.77593755722045898 1.3909374475479126 0.0567973628640174866 189 198 255 253 3
2.75807476043701172 1.49972724914550781 0.0574801936745643616 189 198 255 253 3
2.92706394195556641 0.866264402866363525 0.0474928990006446838 189 198 255 253 3
2.90261197090148926 0.918158292770385742 0.0465347953140735626 189 198 255 253 3
2.91209983825683594 0.952162265777587891 0.0455789864063262939 189 198 255 253 3
2.65686941146850586 1.32781064510345459 0.105530135333538055 189 198 255 253 3
2.6340792179107666 1.3460395336151123 0.101625889539718628 189 198 255 253 3
2.73324990272521973 1.50727832317352295 0.0591400898993015289 189 198 255 253 3
3.14898180961608887 0.750922262668609619 0.0530747398734092712 189 198 255 253 3
3.15759825706481934 0.724815666675567627 0.0750801190733909607 189 198 255 253 3
3.16416382789611816 0.749939262866973877 0.0627555176615715027 189 198 255 253 3
3.15471100807189941 0.792548120021820068 0.0466958470642566681 189 198 255 253 3
2.8770289421081543 1.35436201095581055 0.0589217878878116608 189 198 255 253 3
2.90274643898010254 1.40715467929840088 0.0715826600790023804 189 198 255 253 3
2.88738369941711426 1.42392075061798096 0.066645696759223938 189 198 255 253 3
3.30163383483886719 0.599987506866455078 0.0734930336475372314 189 198 255 253 3
3.28283333778381348 0.64603888988494873 0.0711315646767616272 189 198 255 253 3
3.30989217758178711 1.40173542499542236 0.0482869148254394531 189 198 255 253 3
2.89033317565917969 0.611011326313018799 0.0632259473204612732 189 198 255 253 3
2.91885733604431152 0.599816381931304932 0.0599946342408657074 189 198 255 253 3
3.17679047584533691 0.873524129390716553 0.0400685966014862061 189 198 255 253 3
3.12445688247680664 0.887630343437194824 0.0444698520004749298 189 198 255 253 3
3.12311720848083496 0.778042018413543701 0.0395535342395305634 189 198 255 253 3
3.06149530410766602 0.970238387584686279 0.0462805218994617462 189 198 255 253 3
3.09045743942260742 0.976903557777404785 0.0476132109761238098 189 198 255 253 3
3.10145854949951172 0.865806996822357178 0.0405910462141036987 189 198 255 253 3
2.62237405776977539 1.35685181617736816 0.102249585092067719 189 198 255 253 3
2.9937288761138916 1.02666091918945312 0.0508175492286682129 189 198 255 253 3
2.9539799690246582 0.901611328125 0.0474167726933956146 189 198 255 253 3
3.01790428161621094 0.952514111995697021 0.0478170402348041534 189 198 255 253 3
3.12324380874633789 1.29334568977355957 0.105314910411834717 189 198 255 253 3
3.16714763641357422 1.28608608245849609 0.0942662060260772705 189 198 255 253 3
3.15243816375732422 1.2904740571975708 0.0894723758101463318 189 198 255 253 3
2.82325148582458496 1.41775000095367432 0.053931117057800293 189 198 255 253 3
2.86137175559997559 1.35838973522186279 0.0526886768639087677 189 198 255 253 3
3.19249963760375977 1.43249988555908203 0.0496049970388412476 189 198 255 253 3
3.28079080581665039 1.38309502601623535 0.0475110188126564026 189 198 255 253 3
3.39398002624511719 0.756893157958984375 0.03919229656457901 189 198 255 253 3
3.41247844696044922 0.821960210800170898 0.0413309819996356964 189 198 255 253 3
3.3689732551574707 0.718904495239257812 0.0708336830139160156 189 198 255 253 3
3.01417636871337891 1.34434044361114502 0.0602437034249305725 189 198 255 253 3
2.94026398658752441 1.41039276123046875 0.0592145733535289764 189 198 255 253 3
2.67418241500854492 1.46682167053222656 0.0621181651949882507 189 198 255 253 3
2.63430237770080566 1.51440763473510742 0.0630673244595527649 189 198 255 253 3
3.26086020469665527 0.698676764965057373 0.0774368643760681152 189 198 255 253 3
2.97569370269775391 0.612524628639221191 0.0532588586211204529 189 198 255 253 3
3.0279538631439209 0.579864084720611572 0.0505358949303627014 189 198 255 253 3
3.29692554473876953 0.717133820056915283 0.0758963301777839661 189 198 255 253 3
2.82899212837219238 1.34615778923034668 0.0628811940550804138 189 198 255 253 3
3.46626067161560059 0.684959173202514648 0.040281146764755249 189 198 255 253 3
3.46719646453857422 0.649074137210845947 0.0438979975879192352 189 198 255 253 3
3.50505828857421875 0.685574710369110107 0.0450693406164646149 189 198 255 253 3
3.20107889175415039 1.24191725254058838 0.0672507733106613159 189 198 255 253 3
3.16211557388305664 1.23730146884918213 0.0916549041867256165 189 198 255 253 3
3.13639140129089355 1.24621474742889404 0.0915393903851509094 189 198 255 253 3
3.17894959449768066 1.25387072563171387 0.0905075445771217346 189 198 255 253 3
3.14873671531677246 1.26308333873748779 0.105341948568820953 189 198 255 253 3
3.14902067184448242 1.28444385528564453 0.11191103607416153 189 198 255 253 3
3.25415682792663574 0.97842782735824585 0.0484853014349937439 189 198 255 253 3
3.25127506256103516 1.02040517330169678 0.0464218705892562866 189 198 255 253 3
3.36134719848632812 0.993371903896331787 0.0449249520897865295 189 198 255 253 3
3.30472540855407715 0.981418788433074951 0.0490175224840641022 189 198 255 253 3
3.3817589282989502 0.628545522689819336 0.0639196261763572693 189 198 255 253 3
3.44008874893188477 0.628127336502075195 0.0579372011125087738 189 198 255 253 3
3.41201043128967285 0.618526220321655273 0.063359677791595459 189 198 255 253 3
3.28589391708374023 1.20206010341644287 0.0476139150559902191 189 198 255 253 3
3.33147931098937988 1.1912153959274292 0.0449642390012741089 189 198 255 253 3
3.34175443649291992 1.1437002420425415 0.0486300289630889893 189 198 255 253 3
2.64968705177307129 1.31705725193023682 0.0740034058690071106 189 198 255 253 3
2.65980172157287598 1.31597554683685303 0.0612405762076377869 189 198 255 253 3
2.94757413864135742 1.41421496868133545 0.171364456415176392 189 198 255 253 3
3.36489748954772949 1.04434692859649658 0.0438843183219432831 189 198 255 253 3
3.39424371719360352 1.22513008117675781 0.0518878176808357239 189 198 255 253 3
3.43582510948181152 1.24269235134124756 0.0534256063401699066 189 198 255 253 3
3.44887185096740723 1.25433778762817383 0.0473516099154949188 189 198 255 253 3
3.36183667182922363 1.26553797721862793 0.0457123294472694397 189 198 255 253 3
3.15854668617248535 0.625221490859985352 0.0608178190886974335 189 198 255 253 3
3.15153908729553223 0.569278061389923096 0.0641633793711662292 189 198 255 253 3
3.1126399040222168 0.58157879114151001 0.0544611215591430664 189 198 255 253 3
3.15543007850646973 0.590254366397857666 0.0590317472815513611 189 198 255 253 3
3.19424962997436523 0.581061363220214844 0.062397494912147522 189 198 255 253 3
3.17836785316467285 0.557098865509033203 0.0763695240020751953 189 198 255 253 3
3.15206265449523926 1.20613610744476318 0.0703997164964675903 189 198 255 253 3
3.10289955139160156 0.657225906848907471 0.0499762818217277527 189 198 255 253 3
3.07689762115478516 0.713603854179382324 0.0449903011322021484 189 198 255 253 3
3.05393576622009277 0.730982422828674316 0.0452576205134391785 189 198 255 253 3
3.05968594551086426 0.571806430816650391 0.0495695583522319794 189 198 255 253 3
3.04958534240722656 0.667648017406463623 0.0501337870955467224 189 198 255 253 3
3.26127052307128906 0.621216535568237305 0.063752591609954834 189 198 255 253 3
3.22624087333679199 0.576367974281311035 0.0672026574611663818 189 198 255 253 3
3.2558143138885498 0.58305203914642334 0.0742886960506439209 189 198 255 253 3
3.26399564743041992 0.599120676517486572 0.0649890601634979248 189 198 255 253 3
3.21650004386901855 0.600880801677703857 0.062486555427312851 189 198 255 253 3
3.03531336784362793 1.22702598571777344 0.0618972703814506531 189 198 255 253 3
3.05790114402770996 1.21504509449005127 0.0571343787014484406 189 198 255 253 3
3.12282180786132812 1.22816991806030273 0.0754948481917381287 189 198 255 253 3
3.36266708374023438 0.74985051155090332 0.0446012914180755615 189 198 255 253 3
3.30959367752075195 0.763127148151397705 0.0427214838564395905 189 198 255 253 3
3.12216901779174805 1.26995849609375 0.0686739534139633179 189 198 255 253 3
3.07021641731262207 1.2976524829864502 0.0810915902256965637 189 198 255 253 3
3.07386970520019531 1.30977296829223633 0.0537844635546207428 189 198 255 253 3
3.05438661575317383 1.37039279937744141 0.0549777820706367493 189 198 255 253 3
3.08721256256103516 1.28713428974151611 0.0635375455021858215 189 198 255 253 3
3.0322566032409668 1.31226372718811035 0.0686996206641197205 189 198 255 253 3
3.12382364273071289 1.28072917461395264 0.0523460917174816132 189 198 255 253 3
3.37287688255310059 1.21495318412780762 0.0561184175312519073 189 198 255 253 3
3.08277130126953125 1.02111613750457764 0.0519079416990280151 189 198 255 253 3
2.96864652633666992 1.12127041816711426 0.0500548370182514191 189 198 255 253 3
2.99356675148010254 1.2282174825668335 0.0549084991216659546 189 198 255 253 3
2.94653081893920898 1.37972772121429443 0.168683409690856934 189 198 255 253 3
2.93658041954040527 1.38737654685974121 0.205051422119140625 189 198 255 253 3
3.2262885570526123 0.953534781932830811 0.043442845344543457 189 198 255 253 3
3.19079923629760742 1.03228700160980225 0.0458385199308395386 189 198 255 253 3
3.12437558174133301 1.06722342967987061 0.0488204434514045715 189 198 255 253 3
3.13696908950805664 1.11903786659240723 0.0506626926362514496 189 198 255 253 3
3.15484380722045898 1.37390625476837158 0.0510720387101173401 189 198 255 253 3
3.15346884727478027 1.31129264831542969 0.0528819896280765533 189 198 255 253 3
3.17523074150085449 1.31957471370697021 0.0502954758703708649 189 198 255 253 3
3.18469119071960449 1.2847822904586792 0.0589814744889736176 189 198 255 253 3
3.16001105308532715 1.29361534118652344 0.063635408878326416 189 198 255 253 3
3.45498204231262207 1.38170695304870605 0.047403387725353241 189 198 255 253 3
3.35164952278137207 1.40468704700469971 0.0471582598984241486 189 198 255 253 3
2.93203639984130859 1.32593643665313721 0.172768816351890564 189 198 255 253 3
2.94082140922546387 1.3407437801361084 0.166748523712158203 189 198 255 253 3
2.93812203407287598 1.33356523513793945 0.232494443655014038 189 198 255 253 3
2.97249102592468262 1.21192395687103271 0.0473914444446563721 189 198 255 253 3
2.94629645347595215 1.24232470989227295 0.0585413351655006409 189 198 255 253 3
3.26198577880859375 0.749210238456726074 0.0529275424778461456 189 198 255 253 3
3.20970940589904785 0.750715315341949463 0.0534015223383903503 189 198 255 253 3
3.18355941772460938 0.774046897888183594 0.0448712967336177826 189 198 255 253 3
3.24588274955749512 0.767386674880981445 0.044566761702299118 189 198 255 253 3
3.24932646751403809 0.786989390850067139 0.0424710065126419067 189 198 255 253 3
3.23833632469177246 0.730984210968017578 0.0759051218628883362 189 198 255 253 3
3.30226969718933105 0.735615074634552002 0.064094245433807373 189 198 255 253 3
3.08981871604919434 1.40212392807006836 0.0538345798850059509 189 198 255 253 3
3.14373278617858887 1.4229046106338501 0.0526771992444992065 189 198 255 253 3
3.22503948211669922 1.11125612258911133 0.0471860021352767944 189 198 255 253 3
2.978607177734375 0.804602921009063721 0.0493698678910732269 189 198 255 253 3
3.012420654296875 0.846249938011169434 0.0442201606929302216 189 198 255 253 3
3.0056312084197998 0.893023967742919922 0.0438716188073158264 189 198 255 253 3
3.48833346366882324 1.34916114807128906 0.0527401752769947052 189 198 255 253 3
3.48597574234008789 1.27736735343933105 0.0544882714748382568 189 198 255 253 3
3.46903395652770996 1.30999839305877686 0.0501433871686458588 189 198 255 253 3
3.49416232109069824 0.725721895694732666 0.0417113937437534332 189 198 255 253 3
3.47378158569335938 0.765319645404815674 0.0413327105343341827 189 198 255 253 3
3.42976021766662598 0.737605512142181396 0.0396057367324829102 189 198 255 253 3
3.4495234489440918 0.85350877046585083 0.0405630804598331451 189 198 255 253 3
3.06613254547119141 1.25507640838623047 0.085056595504283905 189 198 255 253 3
3.02353882789611816 1.26177680492401123 0.0849408134818077087 189 198 255 253 3
3.06750297546386719 1.31432294845581055 0.108545251190662384 189 198 255 253 3
3.03772592544555664 1.3324664831161499 0.116919733583927155 189 198 255 253 3
3.10876798629760742 1.26562368869781494 0.0980479195713996887 189 198 255 253 3
3.11217737197875977 1.28979122638702393 0.111117139458656311 189 198 255 253 3
3.08780574798583984 1.3000565767288208 0.110700391232967377 189 198 255 253 3
3.09614086151123047 1.2804638147354126 0.0787798240780830383 189 198 255 253 3
3.05616211891174316 1.30160582065582275 0.112603865563869476 189 198 255 253 3
3.0608220100402832 1.27112734317779541 0.0936148539185523987 189 198 255 253 3
3.08316326141357422 0.763491272926330566 0.0433290638029575348 189 198 255 253 3
3.07327508926391602 1.12067186832427979 0.0503841005265712738 189 198 255 253 3
3.0355985164642334 1.18706405162811279 0.0481073260307312012 189 198 255 253 3
3.3976445198059082 0.909643471240997314 0.0452407151460647583 189 198 255 253 3
3.37294745445251465 0.896119892597198486 0.0475325547158718109 189 198 255 253 3
3.35774683952331543 0.947444379329681396 0.0430216975510120392 189 198 255 253 3
2.87530159950256348 0.598848700523376465 0.092316649854183197 189 198 255 253 3
3.00351715087890625 1.37787973880767822 0.0927174687385559082 189 198 255 253 3
2.98814916610717773 1.37943422794342041 0.142354384064674377 189 198 255 253 3
2.97072553634643555 1.42452895641326904 0.148529052734375 189 198 255 253 3
2.9719696044921875 1.3663020133972168 0.146491825580596924 189 198 255 253 3
2.71521115303039551 1.43639397621154785 0.0617129392921924591 189 198 255 253 3
2.67769217491149902 1.35170185565948486 0.0590227618813514709 189 198 255 253 3
3.50079941749572754 1.21740281581878662 0.0467211455106735229 189 198 255 253 3
3.48124194145202637 1.24411308765411377 0.0451704449951648712 189 198 255 253 3
3.02286124229431152 0.716482400894165039 0.0458944737911224365 189 198 255 253 3
2.95981526374816895 0.721427619457244873 0.0474679693579673767 189 198 255 253 3
2.98087310791015625 0.660134494304656982 0.0513001121580600739 189 198 255 253 3
3.3730156421661377 0.815978467464447021 0.0395314842462539673 189 198 255 253 3
3.30446863174438477 0.841546416282653809 0.0404209420084953308 189 198 255 253 3
3.27630901336669922 0.928041338920593262 0.0429924018681049347 189 198 255 253 3
3.32513856887817383 0.927881479263305664 0.0458634346723556519 189 198 255 253 3
2.96663546562194824 1.01826047897338867 0.0488059632480144501 189 198 255 253 3
2.98181629180908203 1.08803045749664307 0.0513210035860538483 189 198 255 253 3
3.00837612152099609 1.11198604106903076 0.0534431450068950653 189 198 255 253 3
3.03457093238830566 1.39452886581420898 0.0703723505139350891 189 198 255 253 3
3.10948276519775391 1.34556818008422852 0.0516742877662181854 189 198 255 253 3
3.06927490234375 1.43776965141296387 0.0767542868852615356 189 198 255 253 3
3.22749495506286621 1.14960634708404541 0.0479332469403743744 189 198 255 253 3
3.20240879058837891 1.18196678161621094 0.0576353855431079865 189 198 255 253 3
3.43512701988220215 0.66706162691116333 0.0422818660736083984 189 198 255 253 3
3.40462803840637207 0.718993544578552246 0.0425623506307601929 189 198 255 253 3
3.39235138893127441 0.692029774188995361 0.0674219429492950439 189 198 255 253 3
2.93287062644958496 0.695902109146118164 0.0482391566038131714 189 198 255 253 3
2.93026256561279297 0.789660930633544922 0.0499779880046844482 189 198 255 253 3
2.59160399436950684 1.52879476547241211 0.062740027904510498 189 198 255 253 3
2.63620710372924805 1.41504478454589844 0.0605690479278564453 189 198 255 253 3
2.93497943878173828 1.36256980895996094 0.249274030327796936 189 198 255 253 3
3.18828535079956055 0.996307015419006348 0.0474425964057445526 189 198 255 253 3
3.4865570068359375 1.20750141143798828 0.044163484126329422 189 198 255 253 3
3.43766975402832031 0.61239093542098999 0.0734094604849815369 189 198 255 253 3
3.48661255836486816 0.633578240871429443 0.0593742020428180695 189 198 255 253 3
3.33533954620361328 1.32701146602630615 0.0452664345502853394 189 198 255 253 3
3.31617116928100586 1.29753541946411133 0.0468689464032649994 189 198 255 253 3
3.40878772735595703 1.26346254348754883 0.0453545786440372467 189 198 255 253 3
3.44761943817138672 1.30295264720916748 0.0479152239859104156 189 198 255 253 3
3.38462185859680176 1.30688083171844482 0.0490049459040164948 189 198 255 253 3
3.36819720268249512 1.33317756652832031 0.04743986576795578 189 198 255 253 3
3.45696592330932617 1.34591555595397949 0.0467319861054420471 189 198 255 253 3
3.22087240219116211 0.818172037601470947 0.0402329079806804657 189 198 255 253 3
3.23989224433898926 0.882345080375671387 0.0412213318049907684 189 198 255 253 3
3.25440692901611328 1.35460901260375977 0.0464115254580974579 189 198 255 253 3
2.93309497833251953 0.978326261043548584 0.0484581254422664642 189 198 255 253 3
3.38124990463256836 2.23624992370605469 0.0694401413202285767 189 198 255 253 3
3.37013578414916992 2.20933222770690918 0.0722858011722564697 189 198 255 253 3
3.41312479972839355 2.1757810115814209 0.0692027509212493896 189 198 255 253 3
2.78793621063232422 1.58769643306732178 0.0871198922395706177 189 198 255 253 3
2.76682066917419434 1.55865466594696045 0.0743433460593223572 189 198 255 253 3
2.74325752258300781 1.56156301498413086 0.0634402558207511902 189 198 255 253 3
2.7826228141784668 1.52891945838928223 0.0649076104164123535 189 198 255 253 3
3.21245241165161133 1.87993931770324707 0.0589394047856330872 189 198 255 253 3
2.92518830299377441 1.76608753204345703 0.057333827018737793 189 198 255 253 3
2.86129093170166016 1.77017402648925781 0.061252884566783905 189 198 255 253 3
2.96397900581359863 1.7746574878692627 0.0575898736715316772 189 198 255 253 3
3.45189094543457031 1.89588487148284912 0.072237059473991394 189 198 255 253 3
2.9640650749206543 1.84478616714477539 0.0603576488792896271 189 198 255 253 3
2.99724006652832031 1.90285444259643555 0.0613423176109790802 189 198 255 253 3
2.66388797760009766 1.85360360145568848 0.0634013712406158447 189 198 255 253 3
3.07766270637512207 1.53132081031799316 0.1094561368227005 189 198 255 253 3
2.85264396667480469 2.0509037971496582 0.0630892440676689148 189 198 255 253 3
2.82997846603393555 2.09911799430847168 0.0642353743314743042 189 198 255 253 3
2.83346796035766602 2.17252683639526367 0.0653706714510917664 189 198 255 253 3
2.87957429885864258 2.10461282730102539 0.0656303092837333679 189 198 255 253 3
3.3288121223449707 2.02806544303894043 0.0610099844634532928 189 198 255 253 3
3.27974700927734375 2.04067897796630859 0.0602952428162097931 189 198 255 253 3
3.09348702430725098 1.92567026615142822 0.0610564462840557098 189 198 255 253 3
3.04391193389892578 1.86656427383422852 0.0596305765211582184 189 198 255 253 3
3.02628302574157715 1.73852646350860596 0.0591676235198974609 189 198 255 253 3
2.98365354537963867 1.71368622779846191 0.0580244101583957672 189 198 255 253 3
2.94748210906982422 1.62284648418426514 0.0583495274186134338 189 198 255 253 3
2.91018104553222656 1.6045379638671875 0.058362860232591629 189 198 255 253 3
2.70610499382019043 2.12129998207092285 0.0644127503037452698 189 198 255 253 3
2.63203907012939453 2.15274667739868164 0.0641306638717651367 189 198 255 253 3
3.4414215087890625 2.27234697341918945 0.0674751922488212585 189 198 255 253 3
3.33191871643066406 2.32994937896728516 0.0695563927292823792 189 198 255 253 3
3.3977358341217041 2.10777974128723145 0.0718036815524101257 189 198 255 253 3
3.13000011444091797 2.09250020980834961 0.0632350295782089233 189 198 255 253 3
3.02218723297119141 2.09187507629394531 0.0632425174117088318 189 198 255 253 3
2.96705842018127441 2.12147140502929688 0.0636002495884895325 189 198 255 253 3
2.73878145217895508 1.88559699058532715 0.0654362514615058899 189 198 255 253 3
2.76675796508789062 1.89187586307525635 0.0624179206788539886 189 198 255 253 3
3.25964832305908203 2.47308993339538574 0.0702299326658248901 189 198 255 253 3
3.24894475936889648 2.43582534790039062 0.0693946480751037598 189 198 255 253 3
2.9153289794921875 1.8268277645111084 0.060735013335943222 189 198 255 253 3
2.95281243324279785 2.35421872138977051 0.065784551203250885 189 198 255 253 3
3.50465083122253418 2.04768943786621094 0.0627442002296447754 189 198 255 253 3
3.43282032012939453 2.07906579971313477 0.0707390382885932922 189 198 255 253 3
3.47685146331787109 2.35978364944458008 0.0690525621175765991 189 198 255 253 3
2.54788708686828613 2.21311020851135254 0.0627021193504333496 189 198 255 253 3
2.61643385887145996 2.28347349166870117 0.0625835210084915161 189 198 255 253 3
2.56158113479614258 2.27927923202514648 0.062691226601600647 189 198 255 253 3
3.07919216156005859 2.21318387985229492 0.0641122981905937195 189 198 255 253 3
2.87039995193481445 2.28926515579223633 0.063302062451839447 189 198 255 253 3
2.59549951553344727 1.91431057453155518 0.0653888806700706482 189 198 255 253 3
2.56509685516357422 1.97429370880126953 0.0640642121434211731 189 198 255 253 3
2.62097477912902832 1.96292209625244141 0.0651323497295379639 189 198 255 253 3
2.51864433288574219 2.54970264434814453 0.0620309486985206604 189 198 255 253 3
2.54509067535400391 1.51027429103851318 0.062920786440372467 189 198 255 253 3
2.78479146957397461 2.22194671630859375 0.0650301277637481689 189 198 255 253 3
2.73089790344238281 2.26553106307983398 0.0641094744205474854 189 198 255 253 3
2.76011133193969727 2.22629117965698242 0.0635814741253852844 189 198 255 253 3
3.12878727912902832 1.80132162570953369 0.0566618666052818298 189 198 255 253 3
3.3705909252166748 2.16721773147583008 0.0704807788133621216 189 198 255 253 3
3.26601147651672363 1.93361806869506836 0.0599633902311325073 189 198 255 253 3
3.25797104835510254 2.00253725051879883 0.0618293322622776031 189 198 255 253 3
3.23476457595825195 2.04153680801391602 0.0611757412552833557 189 198 255 253 3
2.56500005722045898 2.01937484741210938 0.0644799768924713135 189 198 255 253 3
2.62796878814697266 2.08062505722045898 0.0635719522833824158 189 198 255 253 3
2.74712514877319336 2.52390289306640625 0.063987046480178833 189 198 255 253 3
2.75603771209716797 2.57767677307128906 0.0618448555469512939 189 198 255 253 3
3.00827336311340332 1.49059510231018066 0.0568271689116954803 189 198 255 253 3
3.36710023880004883 2.39333081245422363 0.0702350139617919922 189 198 255 253 3
3.39243459701538086 2.44057011604309082 0.0699161067605018616 189 198 255 253 3
3.46437501907348633 2.18312501907348633 0.0658475011587142944 189 198 255 253 3
2.75786018371582031 1.58923947811126709 0.080066777765750885 189 198 255 253 3
2.98520231246948242 2.37839198112487793 0.0669573545455932617 189 198 255 253 3
3.08967328071594238 2.43480467796325684 0.0651416927576065063 189 198 255 253 3
2.9810788631439209 2.46715140342712402 0.063388921320438385 189 198 255 253 3
2.72343754768371582 2.46249985694885254 0.0634915083646774292 189 198 255 253 3
2.76135563850402832 2.4328312873840332 0.063852846622467041 189 198 255 253 3
2.80882811546325684 2.31418919563293457 0.0648695006966590881 189 198 255 253 3
3.20001101493835449 1.82396435737609863 0.0592793598771095276 189 198 255 253 3
3.26809954643249512 1.82251417636871338 0.0588809661567211151 189 198 255 253 3
3.25557923316955566 1.78133165836334229 0.0571008622646331787 189 198 255 253 3
2.53635883331298828 2.47470545768737793 0.0619399584829807281 189 198 255 253 3
2.84354043006896973 2.24901485443115234 0.0660467296838760376 189 198 255 253 3
2.77991914749145508 2.30210447311401367 0.0651963502168655396 189 198 255 253 3
3.21150422096252441 1.68355584144592285 0.0560399927198886871 189 198 255 253 3
3.21528911590576172 1.62263178825378418 0.054509337991476059 189 198 255 253 3
2.69816374778747559 1.92147707939147949 0.0655740797519683838 189 198 255 253 3
2.65603876113891602 1.97059404850006104 0.0644140690565109253 189 198 255 253 3
2.7319178581237793 1.63496649265289307 0.0610776431858539581 189 198 255 253 3
2.74686121940612793 1.64190030097961426 0.0701807290315628052 189 198 255 253 3
2.75026845932006836 1.6737971305847168 0.064665675163269043 189 198 255 253 3
2.80141305923461914 1.60181641578674316 0.0684811100363731384 189 198 255 253 3
3.10305476188659668 1.58427095413208008 0.086046271026134491 189 198 255 253 3
3.09082984924316406 1.52654027938842773 0.0644043087959289551 189 198 255 253 3
3.0981605052947998 1.55051100254058838 0.067333713173866272 189 198 255 253 3
3.10256195068359375 1.55050039291381836 0.0995449647307395935 189 198 255 253 3
3.09539031982421875 1.52341055870056152 0.0980824604630470276 189 198 255 253 3
3.08712315559387207 1.53286731243133545 0.0968884080648422241 189 198 255 253 3
3.10040950775146484 1.62111115455627441 0.0934137701988220215 189 198 255 253 3
2.84053945541381836 2.53482866287231445 0.0643110126256942749 189 198 255 253 3
2.80382657051086426 2.49423456192016602 0.0627356171607971191 189 198 255 253 3
2.94897222518920898 2.19901061058044434 0.0630710572004318237 189 198 255 253 3
3.13250255584716797 1.99367022514343262 0.0618069544434547424 189 198 255 253 3
3.18415164947509766 1.99022912979125977 0.0599420554935932159 189 198 255 253 3
3.14258217811584473 2.0479729175567627 0.0624874159693717957 189 198 255 253 3
2.74430370330810547 2.37876176834106445 0.0625124722719192505 189 198 255 253 3
2.93249988555908203 2.12374997138977051 0.0647743344306945801 189 198 255 253 3
3.11424708366394043 1.75247740745544434 0.059134356677532196 189 198 255 253 3
3.0902402400970459 1.83562743663787842 0.0587052814662456512 189 198 255 253 3
3.0161588191986084 1.83782315254211426 0.0590357221662998199 189 198 255 253 3
3.08330321311950684 2.35864162445068359 0.0647601932287216187 189 198 255 253 3
2.57523679733276367 2.0962071418762207 0.0646855682134628296 189 198 255 253 3
2.75981664657592773 2.11715173721313477 0.0635843127965927124 189 198 255 253 3
2.72743892669677734 2.17307209968566895 0.0637009739875793457 189 198 255 253 3
2.6452937126159668 2.51019406318664551 0.0614101216197013855 189 198 255 253 3
2.70624995231628418 2.53156232833862305 0.0630818381905555725 189 198 255 253 3
2.96801972389221191 1.94578826427459717 0.0632254257798194885 189 198 255 253 3
3.30950188636779785 1.86128270626068115 0.0595477186143398285 189 198 255 253 3
3.32130980491638184 1.90216636657714844 0.0591134354472160339 189 198 255 253 3
3.30776453018188477 1.99106478691101074 0.0596937946975231171 189 198 255 253 3
2.55104255676269531 1.62073063850402832 0.0631520301103591919 189 198 255 253 3
2.5957648754119873 1.65418028831481934 0.0610518306493759155 189 198 255 253 3
3.07141542434692383 1.58620929718017578 0.056099720299243927 189 198 255 253 3
3.08010244369506836 1.61734378337860107 0.0606733933091163635 189 198 255 253 3
3.02625894546508789 2.25276803970336914 0.0658431649208068848 189 198 255 253 3
3.10625004768371582 2.21656250953674316 0.0631392523646354675 189 198 255 253 3
3.09148883819580078 2.2863621711730957 0.063653700053691864 189 198 255 253 3
3.5158088207244873 1.8346635103225708 0.0718301087617874146 189 198 255 253 3
3.07732176780700684 2.08356523513793945 0.0622374825179576874 189 198 255 253 3
3.37899518013000488 1.67909669876098633 0.0570602007210254669 189 198 255 253 3
3.44343113899230957 1.69979202747344971 0.0566905997693538666 189 198 255 253 3
3.4343876838684082 1.77164244651794434 0.0592364668846130371 189 198 255 253 3
2.86903190612792969 1.61005294322967529 0.0572113245725631714 189 198 255 253 3
2.80827736854553223 1.55979025363922119 0.065747484564781189 189 198 255 253 3
2.81795263290405273 1.58220314979553223 0.0598021186888217926 189 198 255 253 3
3.00122189521789551 2.2932426929473877 0.0657298117876052856 189 198 255 253 3
3.13313126564025879 1.89635443687438965 0.0600806735455989838 189 198 255 253 3
3.1773371696472168 1.92379701137542725 0.0603038892149925232 189 198 255 253 3
3.19499969482421875 1.49749994277954102 0.0520434752106666565 189 198 255 253 3
3.16048121452331543 1.52554464340209961 0.0593866258859634399 189 198 255 253 3
3.15997958183288574 1.57365679740905762 0.0552199631929397583 189 198 255 253 3
3.14172983169555664 1.59466278553009033 0.0663558393716812134 189 198 255 253 3
3.18393659591674805 2.07517433166503906 0.0616496950387954712 189 198 255 253 3
3.24184656143188477 2.1282956600189209 0.0614198669791221619 189 198 255 253 3
2.81499981880187988 2.20499992370605469 0.0638918206095695496 189 198 255 253 3
2.89806628227233887 2.18605279922485352 0.0642410814762115479 189 198 255 253 3
2.80292248725891113 2.14314723014831543 0.0635997876524925232 189 198 255 253 3
3.22562074661254883 2.23482036590576172 0.0626292452216148376 189 198 255 253 3
3.15416693687438965 2.26455473899841309 0.0634588524699211121 189 198 255 253 3
3.1497502326965332 2.29554176330566406 0.063985779881477356 189 198 255 253 3
3.22577190399169922 2.26273036003112793 0.060040842741727829 189 198 255 253 3
3.34419417381286621 2.25308847427368164 0.069991476833820343 189 198 255 253 3
3.41744852066040039 2.31441998481750488 0.0681788474321365356 189 198 255 253 3
3.2557375431060791 1.52686023712158203 0.0507290400564670563 189 198 255 253 3
3.20307469367980957 1.55910313129425049 0.0523034855723381042 189 198 255 253 3
3.30658245086669922 1.76269793510437012 0.0579463504254817963 189 198 255 253 3
2.98233699798583984 2.23563551902770996 0.0640493184328079224 189 198 255 253 3
2.91890621185302734 2.29609370231628418 0.064729638397693634 189 198 255 253 3
3.44820261001586914 2.43800973892211914 0.0702004507184028625 189 198 255 253 3
2.98910641670227051 2.12474942207336426 0.0646194815635681152 189 198 255 253 3
3.04047560691833496 2.1594386100769043 0.0628887265920639038 189 198 255 253 3
3.00127863883972168 2.19236612319946289 0.0646777823567390442 189 198 255 253 3
2.9256279468536377 2.40737104415893555 0.0642711594700813293 189 198 255 253 3
2.87276363372802734 2.37492704391479492 0.0639070272445678711 189 198 255 253 3
2.59651780128479004 2.20934963226318359 0.0647200644016265869 189 198 255 253 3
2.63053488731384277 2.24097895622253418 0.0640122145414352417 189 198 255 253 3
2.83563709259033203 1.85593140125274658 0.0619423985481262207 189 198 255 253 3
2.80603337287902832 1.82922935485839844 0.0612784214317798615 189 198 255 253 3
2.66698622703552246 2.24202752113342285 0.0633739754557609558 189 198 255 253 3
3.40427017211914062 1.56259775161743164 0.0533859357237815857 189 198 255 253 3
3.36811184883117676 1.76471531391143799 0.0583438761532306671 189 198 255 253 3
3.35553836822509766 1.6563640832901001 0.055316925048828125 189 198 255 253 3
3.11746358871459961 1.62244677543640137 0.0885885283350944519 189 198 255 253 3
2.70307469367980957 1.54498386383056641 0.0609236285090446472 189 198 255 253 3
2.63731694221496582 1.64043211936950684 0.0635922476649284363 189 198 255 253 3
2.81874990463256836 2.4375 0.0629884451627731323 189 198 255 253 3
2.88531899452209473 2.46466827392578125 0.0638436079025268555 189 198 255 253 3
2.83406305313110352 2.3696892261505127 0.0620357543230056763 189 198 255 253 3
2.63604998588562012 1.58199238777160645 0.0624920167028903961 189 198 255 253 3
2.57987356185913086 1.8648146390914917 0.0635383650660514832 189 198 255 253 3
2.57551312446594238 2.46397161483764648 0.0609711334109306335 189 198 255 253 3
2.97136402130126953 2.03249216079711914 0.063674628734588623 189 198 255 253 3
2.99143195152282715 2.02945542335510254 0.0644781067967414856 189 198 255 253 3
3.01856350898742676 1.98762083053588867 0.0629143118858337402 189 198 255 253 3
3.05417084693908691 1.99141764640808105 0.0631718635559082031 189 198 255 253 3
3.04543471336364746 1.92685878276824951 0.0606461688876152039 189 198 255 253 3
3.08642983436584473 1.55325734615325928 0.0574937500059604645 189 198 255 253 3
3.03749966621398926 1.57624983787536621 0.0556682795286178589 189 198 255 253 3
3.35804510116577148 2.5095517635345459 0.0712319687008857727 189 198 255 253 3
3.00528931617736816 1.62484240531921387 0.0553599037230014801 189 198 255 253 3
2.89728283882141113 2.03947782516479492 0.0643351972103118896 189 198 255 253 3
2.93718934059143066 2.04484343528747559 0.0658807754516601562 189 198 255 253 3
2.8060758113861084 1.98189103603363037 0.0656768009066581726 189 198 255 253 3
2.73839879035949707 1.83777010440826416 0.0626632794737815857 189 198 255 253 3
3.17572522163391113 2.35897970199584961 0.060324985533952713 189 198 255 253 3
3.11935782432556152 1.69891083240509033 0.0581507645547389984 189 198 255 253 3
3.14750003814697266 1.73562502861022949 0.0569600425660610199 189 198 255 253 3
3.22433876991271973 1.73388338088989258 0.0570585615932941437 189 198 255 253 3
2.72464084625244141 2.04067707061767578 0.0631524026393890381 189 198 255 253 3
2.7921748161315918 2.03452062606811523 0.0642603635787963867 189 198 255 253 3
2.68580818176269531 2.02012729644775391 0.0658348202705383301 189 198 255 253 3
2.7496950626373291 1.99448907375335693 0.0635086670517921448 189 198 255 253 3
3.21829605102539062 2.39934730529785156 0.0599872544407844543 189 198 255 253 3
3.24747228622436523 2.36640620231628418 0.0625148415565490723 189 198 255 253 3
2.57735896110534668 2.36676216125488281 0.0629448667168617249 189 198 255 253 3
3.14927840232849121 2.14008188247680664 0.0627805218100547791 189 198 255 253 3
3.18361377716064453 2.19634056091308594 0.0634089857339859009 189 198 255 253 3
3.18060851097106934 2.48222184181213379 0.0612120404839515686 189 198 255 253 3
3.1201479434967041 2.37940812110900879 0.0617450550198554993 189 198 255 253 3
3.13559150695800781 2.4453740119934082 0.0596999526023864746 189 198 255 253 3
3.03592038154602051 2.37852287292480469 0.0655124634504318237 189 198 255 253 3
3.28164577484130859 1.56197690963745117 0.0538170039653778076 189 198 255 253 3
3.37766408920288086 1.50585877895355225 0.0531114079058170319 189 198 255 253 3
3.35449504852294922 1.58740687370300293 0.0542746484279632568 189 198 255 253 3
3.42799592018127441 2.02876472473144531 0.0709958672523498535 189 198 255 253 3
3.36835980415344238 1.8617396354675293 0.0592597648501396179 189 198 255 253 3
3.350311279296875 1.92939388751983643 0.0620942413806915283 189 198 255 253 3
3.35592532157897949 1.81642270088195801 0.0578442811965942383 189 198 255 253 3
2.93764996528625488 1.71488499641418457 0.0596657395362854004 189 198 255 253 3
3.46612334251403809 2.48737144470214844 0.0697989314794540405 189 198 255 253 3
3.38717174530029297 2.51583123207092285 0.0720457732677459717 189 198 255 253 3
3.38990640640258789 2.55760526657104492 0.0741292759776115417 189 198 255 253 3
2.82310175895690918 1.65135931968688965 0.05918155238032341 189 198 255 253 3
2.83494043350219727 1.71585273742675781 0.0583109073340892792 189 198 255 253 3
2.88942837715148926 1.71561133861541748 0.0591971240937709808 189 198 255 253 3
2.79743361473083496 1.74994266033172607 0.060387834906578064 189 198 255 253 3
3.49995779991149902 1.89637875556945801 0.073161683976650238 189 198 255 253 3
3.47904133796691895 1.93648886680603027 0.0711137428879737854 189 198 255 253 3
3.44177603721618652 1.95657837390899658 0.0725487023591995239 189 198 255 253 3
3.49249982833862305 1.97874999046325684 0.0699212849140167236 189 198 255 253 3
3.19108867645263672 2.52827000617980957 0.0635904297232627869 189 198 255 253 3
3.45107531547546387 1.55559134483337402 0.0527369566261768341 189 198 255 253 3
3.4945981502532959 2.08692479133605957 0.0623546242713928223 189 198 255 253 3
3.49979496002197266 2.12888884544372559 0.0647557899355888367 189 198 255 253 3
3.44953703880310059 2.10045075416564941 0.0690878182649612427 189 198 255 253 3
3.34125280380249023 2.14556074142456055 0.0691341981291770935 189 198 255 253 3
2.63394641876220703 2.41972589492797852 0.0622016340494155884 189 198 255 253 3
2.68758463859558105 2.43284940719604492 0.0609740503132343292 189 198 255 253 3
3.0588376522064209 1.63208270072937012 0.0565372295677661896 189 198 255 253 3
3.08509469032287598 1.69500386714935303 0.0569234415888786316 189 198 255 253 3
3.0672917366027832 1.78391456604003906 0.0587188117206096649 189 198 255 253 3
3.22150635719299316 2.44250178337097168 0.0622975565493106842 189 198 255 253 3
3.22525501251220703 2.51263260841369629 0.0697938799858093262 189 198 255 253 3
2.91345334053039551 1.92567634582519531 0.0613211058080196381 189 198 255 253 3
2.90435123443603516 1.98256659507751465 0.0635746568441390991 189 198 255 253 3
2.85370254516601562 1.99546265602111816 0.0637974068522453308 189 198 255 253 3
